# .PCD v0.7 - Point Cloud Data file format
VERSION 0.7
FIELDS x y z intensity ring
SIZE 4 4 4 4 2
TYPE F F F F U
COUNT 1 1 1 1 1
WIDTH 1258
HEIGHT 1
VIEWPOINT 0 0 0 1 0 0 0
POINTS 1258
DATA ascii
-5.3255196 4.8407536 -0.13092679 12 54
-9.6592264 8.2410145 -0.15565515 23 55
-6.3003464 4.7770247 0.23188478 12 62
-10.270423 7.3990884 0.44663504 13 63
-6.8174491 5.3302069 -0.054737933 17 56
-10.475546 7.6304998 -0.0050554024 12 57
-2.4322238 2.1861436 -0.41070801 4 36
-7.1592488 6.050034 -1.1206491 6 37
-3.0194256 2.0327966 0.020191101 9 58
-8.8358021 5.5105057 0.11961617 20 59
-2.8035696 2.1241715 -0.39936736 12 38
-8.5232182 6.1245527 -1.1286101 20 39
-2.9259741 2.2819121 -0.55592883 9 32
-3.2681293 2.1426792 -0.39678797 9 40
-11.938454 7.3015709 -1.3370856 12 41
-3.4169333 2.3004143 -0.56711942 13 34
-11.304771 7.0502944 -1.753675 15 35
-3.2400711 2.9020498 -0.23406522 7 48
-11.300618 9.4655514 -0.70565146 25 49
-3.3848958 3.1289651 -0.41284958 6 42
-36.31686 31.237425 -4.0042186 28 43
-3.9215181 3.003653 -0.20712261 6 50
-39.284279 28.228615 -1.7411938 21 51
-4.1054468 3.2017608 -0.40413347 6 44
-39.180737 28.675964 -3.479475 20 45
-4.7470684 3.0886748 -0.17023788 10 52
-10.167638 6.2796607 -0.28831157 4 53
-4.9465766 3.3302307 -0.39182398 6 46
-11.078752 6.9093361 -0.78023654 17 47
-4.8892155 4.3180118 0.11369499 21 60
-9.5738163 8.0191593 0.2919417 31 61
-5.3088098 4.8561115 -0.13089041 11 54
-9.7668095 8.3859634 -0.1578126 11 55
-6.2789512 4.7919431 0.23165025 11 62
-6.8132429 5.3614936 -0.054839134 17 56
-10.414426 7.6361713 -0.0050374586 13 57
-2.4261093 2.1929271 -0.41070801 4 36
-7.1362724 6.0648589 -1.1196994 6 37
-3.0120811 2.0400991 0.020180007 9 58
-8.8576469 5.5585461 0.12012156 23 59
-2.7944658 2.1295831 -0.3989161 11 38
-8.5270329 6.1634746 -1.13139 20 39
-2.9195902 2.2900743 -0.55592883 13 32
-9.1705961 6.8629799 -1.6464816 60 33
-3.2588112 2.1496062 -0.39638394 7 40
-11.828153 7.2795739 -1.3270037 33 41
-3.4121363 2.3110588 -0.56739217 11 34
-11.308553 7.0965929 -1.757329 15 35
-3.2275028 2.9070768 -0.2337428 6 48
-11.271086 9.4944973 -0.70546019 27 49
-3.3732264 3.1356931 -0.41249272 6 42
-3.9162807 3.0170317 -0.20729016 7 50
-39.190716 28.327675 -1.7405463 21 51
-4.0996275 3.2156742 -0.40444306 8 44
-39.137451 28.812468 -3.4827631 20 45
-4.736752 3.1008248 -0.1701778 10 52
-10.14327 6.3038092 -0.28811863 7 53
-4.9240384 3.3350782 -0.39077491 6 46
-11.052649 6.9360027 -0.77975929 19 47
-4.878633 4.3329763 0.11372983 20 60
-9.545269 8.0407104 0.29175475 29 61
-5.295228 4.8709183 -0.13089041 9 54
-9.7494087 8.4184351 -0.15791066 8 55
-6.2544436 4.8009381 0.23123983 11 62
-10.395885 7.5835891 0.45404014 18 63
-6.8123589 5.3916702 -0.05495299 17 56
-10.389841 7.6628513 -0.0050358982 18 57
-2.4185078 2.1983588 -0.4104588 4 36
-7.1193099 6.0847621 -1.1196994 5 37
-3.00472 2.0473759 0.020168914 9 58
-8.8590002 5.5939355 0.12035128 23 59
-2.794817 2.1422138 -0.39981863 11 38
-8.5403471 6.2094789 -1.1354527 21 39
-2.91629 2.300668 -0.55652148 12 32
-9.1830292 6.9123716 -1.6521729 52 33
-3.2511382 2.1575975 -0.39618194 7 40
-11.367695 7.0400305 -1.2775455 0 41
-3.4089441 2.322809 -0.56793779 10 34
-3.2238131 2.9201 -0.23406522 5 48
-11.16984 9.4626598 -0.70077431 34 49
-3.3600919 3.1410191 -0.41195753 6 42
-3.9062617 3.0267317 -0.20720638 7 50
-38.814014 28.220728 -1.7273092 20 51
-4.0843701 3.2221692 -0.40382388 10 44
-39.037609 28.907398 -3.4810476 20 45
-4.7297444 3.115139 -0.17023788 11 52
-10.127322 6.333168 -0.28816688 12 53
-4.9163556 3.3499391 -0.39090604 8 46
-11.019734 6.9583116 -0.7788049 14 47
-4.8650231 4.3452506 0.11369499 20 60
-9.5609179 8.0996437 0.29292324 17 61
-5.2786698 4.8829694 -0.13081767 10 54
-9.7152929 8.4364471 -0.15773904 5 55
-6.2410135 4.8183842 0.23123983 11 62
-10.329547 7.5794811 0.45206544 22 63
-6.8066649 5.4181447 -0.055028893 18 56
-10.312184 7.6501279 -0.0050085932 23 57
-2.4134383 2.2068646 -0.41070801 4 36
-7.0982113 6.1032715 -1.1192245 5 37
-3.0019305 2.0585451 0.020191101 9 58
-8.8693666 5.6373634 0.12071884 23 59
-2.7868743 2.1492841 -0.39959297 11 38
-8.4288006 6.1666923 -1.1230505 20 39
-2.9109995 2.3105414 -0.55681783 8 32
-9.1956167 6.9646902 -1.6581486 66 33
-3.249685 2.1705506 -0.39678797 7 40
-3.3922329 2.3261912 -0.56630105 14 34
-3.2092295 2.924273 -0.23363535 8 48
-11.097619 9.4581842 -0.69800109 42 49
-3.3536587 3.1537051 -0.41231433 6 42
-11.03124 9.6537237 -1.2253391 24 43
-3.8846548 3.0284803 -0.20653607 5 50
-38.631706 28.263788 -1.7229207 20 51
-4.0716672 3.2317955 -0.40351436 9 44
-39.031639 29.082701 -3.4881954 20 45
-4.7171478 3.126951 -0.17011771 10 52
-10.106793 6.3621268 -0.28811863 3 53
-4.8998098 3.3599977 -0.39038149 9 46
-10.972078 6.9738455 -0.776896 15 47
-4.8521075 4.3596673 0.11369499 18 60
-9.5140142 8.1085234 0.29222214 4 61
-5.2641573 4.8986115 -0.13081767 9 54
-9.8754663 8.6270695 -0.16075458 11 55
-6.2219515 4.8332028 0.23106395 11 62
-10.82799 7.9947586 0.47491559 29 63
-6.7312374 5.3908114 -0.054548182 28 56
-10.281425 7.6747112 -0.0050046919 20 57
-2.4083407 2.2153587 -0.41095722 4 36
-3.0007479 2.0708504 0.020224383 10 58
-8.8576565 5.6668859 0.12078775 23 59
-2.7789154 2.1563246 -0.39936736 11 38
-8.4200754 6.1987462 -1.1243335 21 39
-2.9010403 2.316699 -0.55622512 9 32
-9.0977602 6.933145 -1.6442051 27 33
-3.2349746 2.1746321 -0.39577785 7 40
-3.3853164 2.3362455 -0.56630105 13 34
-11.905966 7.6171107 -1.8604249 15 35
-3.1975946 2.9310822 -0.2334204 10 48
-11.195385 9.5989952 -0.7059384 31 49
-3.3471818 3.166379 -0.41267118 6 42
-11.122225 9.7917681 -1.2386671 6 43
-3.8835146 3.046159 -0.20695502 6 50
-38.61689 28.429234 -1.7260143 20 51
-4.0698514 3.2500827 -0.40428823 8 44
-38.874954 29.145723 -3.4819055 20 45
-4.7028604 3.137604 -0.16993743 11 52
-12.643198 8.011241 -0.36110097 4 53
-4.8832493 3.3699863 -0.38985696 9 46
-10.946296 7.00314 -0.77653813 19 47
-4.8332186 4.3686805 0.11355557 20 60
-9.4595585 8.1106863 0.29128733 8 61
-5.2423015 4.9073758 -0.13063577 10 54
-9.9174252 8.7157383 -0.16185781 11 55
-6.2044344 4.8491797 0.23094667 11 62
-6.6233311 5.3367243 -0.053801812 28 56
-10.31298 7.7460198 -0.0050312174 22 57
-2.3940883 2.2161732 -0.40971115 4 36
-6.5305638 5.6849399 -1.0351758 26 37
-2.9975128 2.0825491 0.020246571 10 58
-8.812911 5.6773548 0.1204202 24 59
-2.773694 2.1662669 -0.39959297 10 38
-8.4436998 6.2571335 -1.1301069 19 39
-2.8922067 2.3245621 -0.55592883 9 32
-8.9439907 6.8604836 -1.6203018 19 33
-3.2314227 2.1870143 -0.39618194 7 40
-11.870522 7.5013299 -1.3416511 26 41
-3.3779604 2.3468688 -0.56630105 13 34
-3.1839674 2.9370506 -0.233098 13 48
-11.316424 9.7646265 -0.71550131 26 49
-3.3343325 3.1741316 -0.41231433 6 42
-3.869221 3.0546291 -0.20670365 6 50
-10.450829 7.7444997 -0.46819359 4 51
-4.0565133 3.2603536 -0.40397871 6 44
-38.643074 29.161955 -3.4693248 20 45
-4.6946402 3.1534772 -0.16999753 12 52
-12.550547 8.0079002 -0.35917151 4 53
-4.8808341 3.3910036 -0.39051265 6 46
-10.91585 7.0320864 -0.77594161 10 47
-4.8150325 4.3798051 0.113451 16 60
-9.4249496 8.1325254 0.29100689 4 61
-5.2268596 4.9238195 -0.13063577 11 54
-10.074255 8.9098101 -0.16487333 5 55
-6.1923127 4.8711185 0.23106395 10 62
-6.7106104 5.441905 -0.054649383 35 56
-9.6552315 7.2995429 -0.0047214963 1 57
-2.3915715 2.2247198 -0.41020957 5 36
-6.5181475 5.7021875 -1.0354133 21 37
-2.980937 2.0818512 0.020168914 9 58
-8.8376179 5.723876 0.12094855 23 59
-2.7668293 2.1718109 -0.39936736 10 38
-8.4156265 6.2682443 -1.1283963 21 39
-2.8865178 2.3316221 -0.55592883 9 32
-8.891139 6.8545165 -1.6137568 27 33
-3.2326496 2.1993809 -0.39699003 8 40
-11.700916 7.4342227 -1.3245308 73 41
-3.3673425 2.3517125 -0.56548274 12 34
-12.553928 8.130825 -1.9687408 7 35
-3.1855688 2.9529681 -0.2337428 7 48
-11.244232 9.7503672 -0.71244121 44 49
-3.3251274 3.1808925 -0.41213593 6 42
-36.738888 32.710148 -4.1118417 30 43
-3.8601801 3.0628324 -0.20661987 6 50
-4.0454316 3.2677498 -0.40366912 6 44
-38.65435 29.318983 -3.4767587 20 45
-4.6836066 3.1627014 -0.16987735 11 52
-12.700914 8.1475811 -0.36404341 4 53
-4.8676243 3.3994915 -0.39011925 10 46
-10.8802 7.0467992 -0.77462929 14 47
-4.8057919 4.3929062 0.11348586 17 60
-9.382391 8.1358824 0.29030579 7 61
-5.207551 4.9297028 -0.13045388 9 54
-9.8491602 8.7537184 -0.16153909 5 55
-6.1803918 4.8862348 0.23106395 11 62
-6.7531042 5.5037713 -0.055104796 28 56
-9.5322657 7.2432508 -0.0046700058 1 57
-2.3777156 2.2250266 -0.4089635 5 36
-6.9484291 6.1150947 -1.1066409 12 37
-2.9747469 2.0906868 0.020168914 9 58
-8.7921162 5.7315073 0.12055803 30 59
-2.7588136 2.1787794 -0.39914173 10 38
-8.4304056 6.3182297 -1.1328868 24 39
-2.8872619 2.3464136 -0.55741048 10 32
-8.8691988 6.8796544 -1.6134722 29 33
-3.222826 2.2067146 -0.39658597 7 40
-11.049831 7.0666614 -1.2531968 47 41
-3.3652132 2.3651111 -0.56630105 11 34
-12.328755 8.0370121 -1.9371597 12 35
-3.1753325 2.961045 -0.23363535 5 48
-10.992453 9.5893259 -0.69828796 31 49
-3.314239 3.189363 -0.41195753 6 42
-36.701057 32.872204 -4.118506 30 43
-3.8510754 3.0742726 -0.20661987 6 50
-10.419968 7.8093214 -0.46869716 3 51
-4.0341711 3.2784812 -0.40351436 8 44
-10.737599 8.1946754 -0.96797419 2 45
-4.6725488 3.1754601 -0.16981725 11 52
-4.8558841 3.4127719 -0.38998812 6 46
-10.86259 7.0812316 -0.77486789 2 47
-4.7868485 4.401732 0.11334644 19 60
-9.3612232 8.1663132 0.29039925 9 61
-5.1957979 4.9478908 -0.13052663 10 54
-9.6964235 8.6696024 -0.1594552 16 55
-6.1627378 4.9020619 0.23094667 10 62
-10.127801 7.6595936 0.44804555 8 63
-6.7104526 5.5022268 -0.054889739 30 56
-2.3750474 2.2365668 -0.40971115 4 36
-7.0094609 6.2079926 -1.1194619 8 37
-2.960001 2.0942464 0.020113444 9 58
-8.8543167 5.8117757 0.12166069 24 59
-2.7535105 2.1886723 -0.39936736 10 38
-8.421628 6.3530679 -1.1343836 19 39
-2.8722208 2.3492117 -0.55592883 9 32
-8.8803101 6.9330678 -1.6194481 35 33
-3.2109623 2.2134407 -0.39597985 7 40
-10.982383 7.072238 -1.2480607 30 41
-3.3593836 2.376816 -0.56657386 14 34
-12.015004 7.8863807 -1.8917452 13 35
-3.1616454 2.9669065 -0.23331295 5 48
-10.881204 9.5526438 -0.693124 34 49
-3.311358 3.2066884 -0.41284958 5 42
-36.628693 33.015366 -4.1220045 30 43
-3.836725 3.0826015 -0.20636851 6 50
-38.682312 29.180981 -1.7440715 21 51
-4.0223074 3.2898762 -0.40335953 9 44
-10.732368 8.2441673 -0.9698326 0 45
-4.6592503 3.1878667 -0.16969708 11 52
-12.520157 8.140007 -0.36028093 10 53
-4.8467674 3.429163 -0.39011925 7 46
-10.140969 6.6563058 -0.72488028 0 47
-4.7729959 4.4167495 0.11334644 20 60
-9.3971262 8.2497673 0.29231563 19 61
-5.1758957 4.9600387 -0.1304175 9 54
-9.6527863 8.6853085 -0.15918551 9 55
-6.1441855 4.9189005 0.2308294 11 62
-9.9526005 7.5763607 0.44134566 34 63
-6.6329737 5.4736371 -0.054396376 27 56
-10.215359 7.8612056 -0.005028097 16 57
-2.3663023 2.2400479 -0.40921274 5 36
-6.9872513 6.2210383 -1.1185122 7 37
-2.9593973 2.1054664 0.020146726 9 58
-8.8741207 5.8580718 0.1221431 23 59
-2.7477715 2.195873 -0.39936736 10 38
-8.4382391 6.4003282 -1.1388741 26 39
-2.8721719 2.3617475 -0.55711412 8 32
-8.8403282 6.939178 -1.6154642 27 33
-3.205157 2.221839 -0.39597985 7 40
-11.102528 7.1907935 -1.2638493 70 41
-3.3579931 2.3890476 -0.56739217 14 34
-11.938054 7.8806653 -1.8828712 27 35
-3.1509619 2.9724319 -0.233098 5 48
-10.89061 9.6114998 -0.69532347 22 49
-3.2915328 3.2042298 -0.41142228 6 42
-3.8286419 3.0926347 -0.20636851 6 50
-38.534126 29.227789 -1.7408341 21 51
-4.0136809 3.3003948 -0.40335953 6 44
-38.365448 29.630791 -3.4738996 20 45
-4.655829 3.2034521 -0.16987735 10 52
-12.559048 8.2121477 -0.36201748 9 53
-4.8312693 3.4372115 -0.38959473 9 46
-12.807673 8.4547272 -0.91707617 2 47
-4.7614174 4.4292288 0.11334644 19 60
-9.486433 8.3722448 0.29577443 18 61
-5.1585732 4.969409 -0.13030836 9 54
-9.5825558 8.6676188 -0.15840098 5 55
-6.1281724 4.9324608 0.23071216 11 62
-9.9962206 7.6509814 0.44416666 20 63
-6.5878367 5.4654422 -0.054143369 21 56
-10.16627 7.865891 -0.005014054 20 57
-2.3621261 2.2502091 -0.40971115 4 36
-6.9691505 6.2442861 -1.1187496 7 37
-2.965775 2.1240702 0.020235477 10 58
-8.8356857 5.8726406 0.12186744 26 59
-2.7331161 2.1982682 -0.3982392 11 38
-8.5034389 6.4919696 -1.150421 26 39
-2.8571186 2.3644547 -0.55563247 9 32
-8.7780952 6.9350119 -1.6080656 37 33
-3.2014244 2.2341757 -0.39638394 7 40
-10.998166 7.1723523 -1.2545284 32 41
-3.344027 2.3949721 -0.56630105 14 34
-11.980942 7.9631362 -1.8935722 19 35
-3.1445043 2.9850674 -0.23331295 5 48
-10.843926 9.6310768 -0.6942715 17 49
-3.2814493 3.2145557 -0.41142228 6 42
-11.323709 10.325482 -1.2809833 9 43
-3.8204567 3.1059093 -0.2064523 6 50
-38.48341 29.380247 -1.7427045 42 51
-4.0032921 3.3129892 -0.40335953 6 44
-38.235943 29.72303 -3.4706116 20 45
-4.6391683 3.213511 -0.16963698 11 52
-12.713542 8.3703098 -0.36722705 5 53
-4.8188229 3.4512119 -0.38946357 7 46
-12.162527 8.083827 -0.87269568 2 47
-4.7401791 4.4373345 0.11317217 17 60
-9.5333338 8.4670687 0.29806471 17 61
-5.1414995 4.984201 -0.13027199 9 54
-9.4813299 8.630374 -0.15717515 11 55
-6.1157522 4.9542074 0.2308294 11 62
-9.9420481 7.6591749 0.44282666 27 63
-6.569098 5.4848328 -0.054130722 24 56
-10.204626 7.9469476 -0.0050452603 22 57
-2.355834 2.2567956 -0.40971115 5 36
-6.9192319 6.2344751 -1.1135262 9 37
-2.9484742 2.1241593 0.02015782 9 58
-8.8342171 5.9072928 0.12207419 21 59
-2.7331479 2.2108898 -0.39914173 11 38
-8.4379635 6.4793544 -1.1440061 33 39
-2.847465 2.3698924 -0.55503976 9 32
-8.7741976 6.9718103 -1.6109113 43 33
-3.1870306 2.2373896 -0.39537376 7 40
-10.893203 7.1473308 -1.2448269 24 41
-3.3341122 2.4019835 -0.56575555 13 34
-12.062507 8.0659962 -1.9100153 9 35
-3.1361575 2.9938354 -0.23331295 7 48
-10.755906 9.6067553 -0.69035071 23 49
-3.2752991 3.2265015 -0.41177908 6 42
-11.358001 10.41498 -1.2881471 4 43
-3.81177 3.1165643 -0.2064523 6 50
-12.807279 9.8344707 -0.58121324 2 51
-3.9909613 3.3216033 -0.40305001 8 44
-38.470261 30.077875 -3.4994893 20 45
-4.6301775 3.2264521 -0.16963698 11 52
-4.8091683 3.4646533 -0.38946357 7 46
-10.79896 7.2210836 -0.77629954 4 47
-4.7248588 4.4478106 0.11310247 20 60
-9.5081644 8.492322 0.29801798 17 61
-5.1218352 4.9929538 -0.13012648 9 54
-6.0987959 4.9687381 0.23071216 11 62
-9.9364252 7.6991472 0.44353193 25 63
-6.5522265 5.5018668 -0.054118071 24 56
-10.083202 7.8977137 -0.0049961102 19 57
-2.3527761 2.2657094 -0.41020957 4 36
-2.9380431 2.1283522 0.020124536 9 58
-8.8369741 5.9426794 0.12232688 19 59
-2.7227247 2.214277 -0.39846483 11 38
-8.4540243 6.5269451 -1.1484965 20 39
-2.8442841 2.3798783 -0.55563247 9 32
-8.7435389 6.9848747 -1.6086347 37 33
-3.1909151 2.2526119 -0.39658597 7 40
-10.915995 7.2032413 -1.2495825 23 41
-3.335834 2.4165163 -0.56711942 9 34
-11.378234 7.6516232 -1.8048315 5 35
-3.1297493 3.0034196 -0.2334204 6 48
-10.891253 9.7790279 -0.70067871 19 49
-3.2668402 3.2350659 -0.41177908 7 42
-11.551971 10.64866 -1.3133037 2 43
-3.7943347 3.1189206 -0.20594956 5 50
-12.827364 9.9033899 -0.58329952 4 51
-3.9837799 3.3333206 -0.40320477 8 44
-4.6249881 3.2408586 -0.16975716 11 52
-12.930982 8.6141148 -0.37484846 6 53
-4.7936158 3.4725502 -0.38893905 5 46
-4.7146492 4.4615412 0.11313731 17 60
-9.4784584 8.5105095 0.29778427 31 61
-5.1087446 5.0063477 -0.13012648 9 54
-11.115078 10.228002 -0.18517299 7 55
-6.0842185 4.9834232 0.23065351 12 62
-9.8421249 7.6674047 0.44021726 12 63
-6.5943437 5.5667367 -0.054586127 33 56
-2.3427966 2.2703271 -0.40971115 5 36
-6.4414501 5.8715501 -1.0420611 25 37
-2.9410381 2.1446414 0.020191101 10 58
-8.8215733 5.9726529 0.12237284 20 59
-2.709604 2.2177844 -0.39756233 11 38
-8.4303379 6.5510297 -1.1480689 21 39
-2.8398197 2.3913496 -0.55622512 8 32
-8.7740097 7.0544829 -1.6183099 35 33
-3.1805792 2.260319 -0.39618194 8 40
-3.3202219 2.4211469 -0.56575555 14 34
-11.24577 7.6139574 -1.7876053 10 35
-3.1159885 3.0090742 -0.233098 7 48
-11.027974 9.9645357 -0.71148485 22 49
-3.2580724 3.2467184 -0.41195753 6 42
-3.7829783 3.1295509 -0.20586579 5 50
-12.821443 9.9632597 -0.5844506 4 51
-3.9656627 3.339397 -0.40243089 10 44
-10.455276 8.2719021 -0.95539379 0 45
-4.6164179 3.2565236 -0.16981725 10 52
-12.893894 8.6480103 -0.37455904 8 53
-4.7810707 3.4864159 -0.38880792 7 46
-10.654693 7.2137675 -0.76890278 14 47
-4.6991625 4.4749503 0.11310247 18 60
-9.2736511 8.3793831 0.29217541 26 61
-5.0929923 5.0223713 -0.13012648 10 54
-9.5260344 8.8212023 -0.159161 2 55
-6.0685329 5.002511 0.23065351 10 62
-9.9060717 7.7673492 0.44416666 4 63
-6.5692029 5.5809503 -0.054522883 27 56
-2.3364475 2.2768607 -0.40971115 4 36
-6.442595 5.9056182 -1.0449102 26 37
-2.9334252 2.1516631 0.020180007 10 58
-8.7965965 5.9916348 0.12225797 21 59
-2.7080028 2.2291315 -0.3982392 11 38
-8.3963423 6.5623012 -1.1459305 19 39
-2.83464 2.4005489 -0.55652148 8 32
-8.725028 7.0553064 -1.6129031 37 33
-3.1677797 2.2645633 -0.39537376 7 40
-3.3102524 2.4280655 -0.56520993 14 34
-11.365405 7.7413301 -1.8100514 12 35
-3.1061406 3.0163729 -0.23299053 8 48
-3.2461791 3.2529843 -0.41160068 6 42
-9.997673 9.3262415 -1.1428723 6 43
-3.7772965 3.1426592 -0.20603336 6 50
-10.751071 8.4026785 -0.49114284 5 51
-3.9547999 3.3491697 -0.40227607 8 44
-4.5991549 3.2636182 -0.1695168 11 52
-11.217269 7.5689912 -0.32646695 9 53
-4.7793622 3.5056553 -0.38946357 6 46
-10.773109 7.3378992 -0.77892417 1 47
-4.6866479 4.4880562 0.11310247 16 60
-5.0718474 5.0295339 -0.12994458 11 54
-6.0545402 5.0194383 0.23065351 12 62
-11.273297 8.8903399 0.50658131 4 63
-6.6052909 5.643445 -0.05495299 37 56
-2.3229933 2.276432 -0.40846506 5 36
-6.4567409 5.9518528 -1.0498961 26 37
-2.9177489 2.1527226 0.020113444 9 58
-8.7864285 6.0206995 0.12234987 21 59
-2.7002363 2.2354181 -0.39801356 10 38
-8.3983068 6.6016989 -1.1487104 19 39
-2.8264194 2.4071732 -0.55622512 9 32
-8.6499987 7.0346789 -1.6026589 35 33
-3.1695209 2.2792096 -0.39638394 7 40
-10.897326 7.3282228 -1.2547185 17 41
-3.3050535 2.438477 -0.56548274 12 34
-11.153998 7.643023 -1.7797751 11 35
-3.0962758 3.0236402 -0.23288305 10 48
-10.686047 9.7645445 -0.69293272 10 49
-3.2356784 3.260623 -0.41142228 6 42
-11.26528 10.567708 -1.2911459 4 43
-3.7639079 3.1493487 -0.205782 6 50
-3.9484675 3.3627865 -0.40258566 9 44
-10.401125 8.3239355 -0.95467901 5 45
-4.5949035 3.2799339 -0.16969708 10 52
-11.219246 7.6160083 -0.32714224 10 53
-4.7647357 3.5154343 -0.38907015 6 46
-10.905737 7.4729075 -0.79001927 3 47
-4.6640124 4.4914165 0.11285848 14 60
-9.3388844 8.5335531 0.2957277 7 61
-5.0563664 5.0422659 -0.12990819 10 54
-9.1554756 8.5735388 -0.15376738 8 55
-6.0389638 5.0350471 0.23059489 11 62
-6.6274281 5.6944532 -0.055269253 48 56
-10.025725 8.0378685 -0.005012494 14 57
-2.3186567 2.286505 -0.4089635 5 36
-6.665133 6.1827908 -1.0869346 14 37
-2.9189999 2.1678398 0.020168914 10 58
-8.7806416 6.0573554 0.12253364 20 59
-2.6901476 2.2413454 -0.39756233 10 38
-8.3759689 6.6268148 -1.1484965 21 39
-2.8083313 2.4070299 -0.55415076 8 32
-8.6232615 7.0580554 -1.6018052 35 33
-3.1542859 2.2833211 -0.39537376 11 40
-10.963278 7.4226937 -1.2649907 76 41
-3.2957859 2.4476657 -0.56520993 14 34
-10.927542 7.5384026 -1.7474109 41 35
-3.0853381 3.0319519 -0.2327756 8 48
-3.2198246 3.2650974 -0.41070861 6 42
-3.7509391 3.1585824 -0.20561442 6 50
-10.575624 8.367116 -0.48538756 18 51
-3.9333425 3.3712807 -0.40212131 10 44
-10.418427 8.3916054 -0.95868188 12 45
-4.5813308 3.2920187 -0.16957688 11 52
-11.211774 7.6624951 -0.32762459 8 53
-4.7472601 3.525625 -0.38854563 5 46
-4.6427002 4.4990878 0.11268421 15 60
-9.2840672 8.5371342 0.29483962 9 61
-5.0405016 5.058125 -0.12990819 11 54
-9.0775576 8.5542536 -0.15290929 10 55
-6.0185223 5.050138 0.230419 12 62
-10.583019 8.4483099 0.4778071 22 63
-6.6775842 5.7741098 -0.05583851 47 56
-2.311862 2.2933745 -0.4089635 5 36
-6.8180814 6.3624129 -1.1149508 9 37
-2.9109528 2.1752942 0.02015782 9 58
-8.7462006 6.0719767 0.12230391 16 59
-2.6865313 2.2518704 -0.39801356 11 38
-8.364049 6.6578302 -1.1495658 20 39
-2.8101645 2.4231017 -0.55592883 9 32
-8.6893902 7.1553402 -1.6180253 43 33
-3.1523221 2.296185 -0.39597985 11 40
-11.021824 7.5101233 -1.2743117 30 41
-3.2900965 2.4586201 -0.56548274 15 34
-11.074525 7.6883969 -1.7745551 19 35
-3.074908 3.0396891 -0.23266813 7 48
-10.451689 9.6682062 -0.68155277 25 49
-3.2115176 3.2760594 -0.41088703 6 42
-10.897018 10.348114 -1.25616 23 43
-3.7385011 3.167115 -0.20544685 6 50
-10.503839 8.3611145 -0.48322931 23 51
-3.923322 3.3829365 -0.40212131 9 44
-4.5699224 3.3044262 -0.1695168 10 52
-11.192285 7.6979957 -0.32772109 10 53
-4.7351794 3.5385005 -0.38841453 6 46
-10.661448 7.4016218 -0.77558374 17 47
-4.6307631 4.5142393 0.11271907 14 60
-5.0212493 5.0687962 -0.12979905 11 54
-6.006567 5.0705523 0.23053627 11 62
-6.6377873 5.7742081 -0.055648755 38 56
-2.3162839 2.3114386 -0.41095722 4 36
-6.7861419 6.3703847 -1.1128141 7 37
-2.8948936 2.1767104 0.020091254 9 58
-8.7379808 6.104775 0.12244175 15 59
-2.6783178 2.2585514 -0.39778793 11 38
-8.3489113 6.6863494 -1.1502072 20 39
-2.8074446 2.4353182 -0.55681783 8 32
-8.5918961 7.1179457 -1.6037972 41 33
-3.1406801 2.3019998 -0.39537376 7 40
-11.185033 7.6700292 -1.295807 2 41
-3.2812023 2.467181 -0.56520993 9 34
-10.952509 7.6519504 -1.758634 19 35
-3.0687065 3.0516162 -0.23288305 5 48
-10.440503 9.7155085 -0.68270034 28 49
-3.201782 3.2855747 -0.41088703 7 42
-3.7214828 3.1717136 -0.20502791 5 50
-10.483662 8.3959951 -0.48344514 25 51
-3.9102535 3.3919501 -0.40181175 9 44
-10.425651 8.4999256 -0.96397132 38 45
-4.5633302 3.3203247 -0.16963698 10 52
-11.174324 7.7345862 -0.32786578 6 53
-4.7278485 3.554934 -0.38867676 6 46
-10.909475 7.6218858 -0.7952686 21 47
-4.6130633 4.5237603 0.1126145 15 60
-9.4601192 8.8032026 0.30208442 18 61
-5.0019774 5.0793996 -0.12968992 12 54
-9.057025 8.6369562 -0.15342414 27 55
-5.9884462 5.0857649 0.230419 12 62
-10.246643 8.2798185 0.46483049 14 63
-6.5965443 5.7728062 -0.055446353 34 56
-2.3014166 2.3094628 -0.40946192 4 36
-2.9015663 2.1944361 0.020180007 10 58
-8.7192659 6.1279998 0.12241878 15 59
-2.670486 2.2647355 -0.39756233 10 38
-8.3704758 6.7420659 -1.1557668 20 39
-2.7931817 2.4366462 -0.55533612 8 32
-8.4989843 7.0810823 -1.5901382 55 33
-3.137444 2.3131216 -0.39577785 7 40
-10.909557 7.5259953 -1.2663223 9 41
-3.2695603 2.4727476 -0.56439155 13 34
-10.708844 7.526298 -1.7228767 9 35
-3.0587623 3.0587604 -0.2327756 5 48
-9.6562939 9.0361958 -0.63306856 16 49
-3.1912093 3.2930708 -0.41070861 6 42
-3.7217155 3.1898942 -0.20553063 6 50
-10.519329 8.4728775 -0.48617887 20 51
-3.902271 3.404166 -0.40196654 6 44
-10.449699 8.5682135 -0.96840304 22 45
-4.549202 3.3295107 -0.16945671 10 52
-11.139559 7.7566161 -0.3274799 14 53
-4.7179046 3.5681212 -0.38867676 8 46
-10.821182 7.6052504 -0.79037714 12 47
-4.5961437 4.5324106 0.11250994 14 60
-9.3216286 8.7230215 0.29843864 26 61
-4.9835782 5.0890598 -0.12958078 10 54
-9.032876 8.6622114 -0.15342414 2 55
-5.9742241 5.1024656 0.230419 12 62
-9.8698282 8.0209866 0.44875079 22 63
-6.6134291 5.8202701 -0.055724658 35 56
-9.7271729 7.989985 -0.0049102935 14 57
-2.2917609 2.3134618 -0.4089635 5 36
-6.5506191 6.2206497 -1.0800493 26 37
-2.8823099 2.1933467 0.020091254 9 58
-8.6928816 6.1480689 0.12230391 13 59
-2.6698015 2.2778084 -0.39846483 10 38
-8.3457985 6.7631168 -1.1551254 20 39
-2.7874258 2.4462278 -0.55563247 9 32
-8.5826206 7.1940165 -1.6097729 41 33
-3.1321645 2.323606 -0.39597985 10 40
-10.838116 7.5242705 -1.2606156 31 41
-3.2700927 2.4884374 -0.56575555 14 34
-10.647614 7.5305591 -1.7166126 9 35
-3.0510807 3.0692391 -0.23288305 6 48
-9.6207132 9.056591 -0.63249475 1 49
-3.1814241 3.3025253 -0.41070861 6 42
-3.7076943 3.1970084 -0.20527928 6 50
-10.464637 8.4801426 -0.48481199 23 51
-3.8906538 3.4144139 -0.40181175 11 44
-10.327282 8.519207 -0.95939666 3 45
-4.545742 3.3477361 -0.16969708 10 52
-11.088658 7.7701287 -0.32665986 19 53
-4.7057085 3.5808959 -0.38854563 6 46
-4.581255 4.5446191 0.11247508 14 60
-9.1937952 8.654707 0.29516682 37 61
-4.9656663 5.1009588 -0.12950803 10 54
-5.9560256 5.1175647 0.23030174 12 62
-9.9635859 8.146389 0.45411068 30 63
-6.6096082 5.851799 -0.05583851 31 56
-9.6556292 7.9793162 -0.0048861085 14 57
-2.2829106 2.316627 -0.40846506 5 36
-6.7153001 6.4105558 -1.109965 13 37
-2.8765576 2.2008855 0.020091254 9 58
-8.6751251 6.1696486 0.12228094 12 59
-2.6562867 2.2783213 -0.39733666 10 38
-8.3265219 6.7836881 -1.1549116 21 39
-2.7780454 2.4509001 -0.55503976 9 32
-8.5788956 7.2292185 -1.6126187 29 33
-3.1149061 2.3234708 -0.39456567 10 40
-10.950608 7.6449327 -1.2760236 13 41
-3.2556987 2.4909704 -0.56439155 14 34
-10.729663 7.6308117 -1.7330558 61 35
-3.0360136 3.0701165 -0.23234573 7 48
-3.1713891 3.3094051 -0.41053018 6 42
-9.6023912 9.3281384 -1.1190486 29 43
-3.6962919 3.2040865 -0.20511168 6 50
-10.540022 8.5870447 -0.4893443 15 51
-3.8757207 3.4193118 -0.40119264 8 44
-10.217417 8.473628 -0.95124805 13 45
-4.5273218 3.3524876 -0.16933653 11 52
-4.6994877 3.5956292 -0.38880792 6 46
-10.168431 7.2316704 -0.74563885 28 47
-4.5693412 4.5565977 0.11247508 14 60
-9.0868731 8.5990372 0.29245585 26 61
-4.9509039 5.112505 -0.12947164 11 54
-9.5815868 9.2916908 -0.16362299 5 55
-5.9426064 5.1331406 0.23030174 11 62
-9.8681087 8.1115246 0.45072547 17 63
-6.5688677 5.8464789 -0.055623457 30 56
-2.2732496 2.3205552 -0.40796664 5 36
-6.6976824 6.4318275 -1.1102023 11 37
-2.8700147 2.2094109 0.020091254 9 58
-8.6486492 6.1895418 0.12216607 10 59
-2.6450014 2.2822983 -0.39665976 11 38
-8.3017445 6.8045816 -1.1542701 20 39
-2.7751992 2.4630706 -0.55592883 8 32
-8.4577456 7.1701512 -1.5938375 46 33
-3.1143637 2.3374803 -0.39537376 8 40
-10.792664 7.582396 -1.2602351 27 41
-3.2514336 2.503037 -0.56493717 14 34
-10.921436 7.8160973 -1.7677691 9 35
-3.0338912 3.0862322 -0.23288305 6 48
-3.1601822 3.3173583 -0.41035178 6 42
-9.5746717 9.3565884 -1.1190486 30 43
-3.6852629 3.2137268 -0.20502791 6 50
-10.338278 8.4738398 -0.48114303 10 51
-3.8685408 3.4334435 -0.40150219 9 44
-10.342341 8.6291523 -0.965258 26 45
-4.5141492 3.363517 -0.16921633 11 52
-4.6793103 3.6022527 -0.38802111 7 46
-10.104717 7.2315998 -0.74253696 7 47
-4.5487428 4.563055 0.11230081 14 60
-9.3784723 8.9278765 0.30269203 22 61
-4.9301658 5.1214099 -0.12932613 9 54
-5.9243321 5.1481271 0.23018448 11 62
-9.7500391 8.0630674 0.44642344 15 63
-6.5604315 5.8739486 -0.05569936 31 56
-9.6968479 8.1049471 -0.0049297973 16 57
-2.2705073 2.3315549 -0.40871426 4 36
-6.561451 6.3385324 -1.0907334 21 37
-2.8587036 2.2142429 0.020057974 9 58
-8.6253796 6.2116704 0.12209716 10 59
-2.64272 2.2940443 -0.39733666 11 38
-8.3214064 6.8620777 -1.1598297 21 39
-2.761977 2.4660249 -0.55474341 9 32
-8.5358448 7.2800002 -1.6126187 27 33
-3.1074147 2.3467107 -0.39537376 9 40
-3.2408597 2.5102463 -0.56439155 13 34
-11.075195 7.9759345 -1.7964793 22 35
-3.021929 3.0923638 -0.23266813 7 48
-9.7636604 9.3499374 -0.64712608 36 49
-3.1421068 3.3180416 -0.40928131 6 42
-9.5525532 9.3905449 -1.1197151 31 43
-3.6787155 3.2272828 -0.20519549 6 50
-3.8538742 3.4409227 -0.40103784 6 44
-10.431287 8.7559919 -0.97597986 21 45
-4.5009503 3.3744981 -0.16909617 10 52
-4.6701789 3.6173427 -0.38815224 8 46
-4.5351834 4.5765309 0.11230081 15 60
-9.3808222 8.9833212 0.30362684 25 61
-4.9177132 5.1389055 -0.1293989 9 54
-9.7832088 9.6005163 -0.16803597 34 55
-5.9075255 5.1643672 0.23012584 11 62
-9.7060976 8.0753422 0.44550663 5 63
-6.571209 5.9188194 -0.055939719 31 56
-9.8074617 8.2469549 -0.0049984511 15 57
-2.2557046 2.3293333 -0.40721899 5 36
-6.4611087 6.2765756 -1.0769627 24 37
-2.8540862 2.2234464 0.020069066 9 58
-8.6047592 6.2333865 0.12205122 10 59
-2.6333091 2.2988017 -0.39688542 11 38
-8.3052721 6.8878279 -1.1602573 21 39
-2.7580233 2.4763713 -0.55533612 8 32
-8.5305071 7.3166962 -1.6154642 28 33
-3.1024337 2.3565829 -0.39557582 7 40
-3.2322736 2.5180693 -0.5641188 14 34
-10.818427 7.8369932 -1.758373 27 35
-3.0091062 3.096494 -0.23234573 10 48
-9.7159281 9.3563814 -0.64569163 44 49
-3.1382911 3.3326039 -0.40999496 6 42
-9.5433006 9.4339991 -1.1217142 31 43
-3.6591992 3.2282891 -0.20460896 6 50
-10.289298 8.5332441 -0.48114303 34 51
-3.8457336 3.4530039 -0.40119264 8 44
-12.194867 10.294523 -1.1436706 7 45
-4.4994898 3.3930724 -0.16939661 11 52
-10.278604 7.377769 -0.30524272 29 53
-4.6569104 3.6279178 -0.38789001 8 46
-4.5237889 4.5906024 0.11233567 14 60
-9.410428 9.0621872 0.30540299 12 61
-4.8992076 5.148273 -0.12928976 9 54
-9.6510239 9.5238495 -0.16622174 8 55
-5.8915782 5.1795239 0.23006721 11 62
-9.7187672 8.131917 0.44712871 7 63
-6.5620651 5.9438605 -0.056002963 31 56
-9.8179903 8.3027229 -0.0050156144 11 57
-2.2542887 2.3417339 -0.40821585 5 36
-6.4595017 6.3123727 -1.0798118 41 37
-2.8443291 2.2294366 0.020046879 9 58
-8.5862274 6.2588882 0.12205122 10 59
-2.6294639 2.3092268 -0.39733666 10 38
-8.2878542 6.9149866 -1.1606851 22 39
-2.7477281 2.4818914 -0.55474341 8 32
-8.5372391 7.3665462 -1.6208709 28 33
-3.0906856 2.3621523 -0.39496973 8 40
-10.777893 7.713367 -1.2663223 7 41
-3.2216702 2.5252035 -0.56357318 16 34
-10.767888 7.8491988 -1.7539359 13 35
-2.9985185 3.1039717 -0.23223826 10 48
-9.6666021 9.3643169 -0.64425719 39 49
-3.1311126 3.3448091 -0.41035178 7 42
-9.4629784 9.4102726 -1.11555 33 43
-3.6525943 3.2417846 -0.20477654 6 50
-10.285421 8.5816603 -0.4821502 34 51
-3.8310325 3.4603884 -0.40072829 6 44
-4.4862175 3.4039898 -0.16927643 11 52
-10.188594 7.3590622 -0.30321676 21 53
-4.6445556 3.6404867 -0.38775885 6 46
-4.5017529 4.5954328 0.11212654 14 60
-8.9957514 8.7144451 0.29278305 5 61
-4.8797894 5.1584277 -0.12918063 9 54
-9.8498096 9.7778683 -0.17014438 16 55
-5.8716931 5.1930075 0.22989132 10 62
-9.6089668 8.0886335 0.44317931 13 63
-6.5414448 5.960609 -0.055977665 31 56
-9.9197483 8.4393816 -0.005080367 28 57
-2.2441778 2.3459361 -0.40771741 5 36
-6.5146847 6.4064312 -1.0923954 37 37
-2.8451622 2.2445545 0.020102348 10 58
-8.5632982 6.2834635 0.12200527 10 59
-2.6266637 2.3214235 -0.39801356 10 38
-8.2874098 6.9588904 -1.1636788 22 39
-2.7443089 2.4945023 -0.55563247 8 32
-8.6037407 7.4712086 -1.6379447 25 33
-3.0800955 2.3694232 -0.39456567 8 40
-10.784303 7.7692995 -1.2699364 13 41
-3.2168324 2.537766 -0.5641188 14 34
-10.698414 7.8501406 -1.7466279 15 35
-2.9873695 3.1119351 -0.23213078 8 48
-9.6042356 9.3625631 -0.64205772 36 49
-3.1151626 3.3487947 -0.40963814 6 42
-9.3417988 9.3483171 -1.1047211 28 43
-3.640902 3.2519114 -0.20469277 5 50
-10.333413 8.6769075 -0.48567531 23 51
-3.8201432 3.4724064 -0.40072829 6 44
-10.102722 8.6346359 -0.95239168 29 45
-4.475502 3.418066 -0.16927643 10 52
-10.207472 7.4216037 -0.30447093 24 53
-4.6362295 3.6575317 -0.38802111 6 46
-9.9940395 7.3332939 -0.74074745 27 47
-4.4858994 4.6081195 0.11209168 14 60
-8.9382648 8.7133503 0.29180148 8 61
-4.8580818 5.1679034 -0.12903512 8 54
-9.7865028 9.7762547 -0.1695805 19 55
-5.855351 5.2114272 0.22989132 10 62
-9.5972347 8.1304073 0.44381401 15 63
-6.528585 5.986536 -0.056028269 28 56
-10.00713 8.568058 -0.0051388787 18 57
-2.2421317 2.3561168 -0.40846506 4 36
-6.5910993 6.5156102 -1.1080655 19 37
-2.8345747 2.2482679 0.020069066 9 58
-8.5435982 6.3034883 0.12195933 10 59
-2.6176054 2.3256536 -0.39756233 10 38
-8.2843561 6.993392 -1.165817 26 39
-2.7304676 2.495008 -0.55415076 9 32
-8.2515802 7.2033863 -1.5744871 43 33
-3.0786028 2.3811319 -0.39517176 7 40
-3.211729 2.5474112 -0.56439155 11 34
-10.687397 7.8851891 -1.748194 16 35
-2.9819701 3.1226351 -0.23234573 7 48
-9.5953846 9.403059 -0.64310968 47 49
-3.1063843 3.3569396 -0.40963814 6 42
-9.2962132 9.3515425 -1.1022221 28 43
-3.6279144 3.2574282 -0.2044414 5 50
-10.238877 8.6433372 -0.48229408 47 51
-3.8036785 3.4756715 -0.39995438 6 44
-10.120933 8.6961594 -0.95625156 25 45
-4.4586101 3.4236853 -0.16897598 10 52
-10.175093 7.4388642 -0.30408502 25 53
-4.6235104 3.6671777 -0.38775885 6 46
-10.124209 7.4696674 -0.75184256 42 47
-4.4752102 4.6212854 0.11212654 14 60
-4.8418021 5.1776843 -0.12896235 8 54
-9.4885225 9.5283508 -0.16484882 13 55
-5.8387065 5.2240744 0.22977406 11 62
-9.6489553 8.2177143 0.44719926 39 63
-6.5217109 6.0117426 -0.056104172 24 56
-9.7254572 8.3711214 -0.0050054723 15 57
-2.2300875 2.3566034 -0.4074682 5 36
-6.5686526 6.5297899 -1.1073532 20 37
-2.8329756 2.2599165 0.020102348 10 58
-8.5227509 6.3249402 0.12191339 10 59
-2.6066549 2.3289819 -0.39688542 10 38
-8.2481194 7.0023432 -1.1634649 33 39
-2.7249458 2.5039616 -0.55444711 9 32
-8.2998667 7.2864799 -1.587577 43 33
-3.0750825 2.3921635 -0.39557582 7 40
-10.999556 8.0151358 -1.3003724 39 41
-3.2015049 2.5538993 -0.56384605 14 34
-10.714697 7.9516363 -1.756285 27 35
-2.971863 3.1295023 -0.23223826 7 48
-9.6288509 9.4887104 -0.64712608 28 49
-3.0942993 3.3626697 -0.40928131 6 42
-9.236433 9.3434486 -1.0982237 24 43
-3.6188037 3.2675471 -0.2044414 5 50
-10.194892 8.6550798 -0.48135883 18 51
-3.7968938 3.4889784 -0.40026394 10 44
-10.119248 8.7439537 -0.9583959 27 45
-4.4521956 3.4385669 -0.16909617 10 52
-10.025417 7.3724885 -0.30022609 20 53
-4.6116915 3.6788306 -0.38762772 9 46
-9.9542131 7.3872633 -0.74074745 14 47
-4.4567385 4.6280036 0.11198712 15 60
-8.8126593 8.6843987 0.28923073 4 61
-4.8300476 5.1941142 -0.12903512 8 54
-9.4506197 9.5434437 -0.16465269 11 55
-5.8196363 5.2363482 0.22959816 10 62
-9.8293886 8.4188557 0.45664957 20 63
-6.5107641 6.0353703 -0.056154769 19 56
-9.6778479 8.377305 -0.0049929898 15 57
-2.2253926 2.3664889 -0.40796664 5 36
-6.5073929 6.5096636 -1.1004679 24 37
-2.8243029 2.2675529 0.020091254 9 58
-8.5044422 6.3528795 0.12193636 10 59
-2.5993259 2.3371592 -0.39688542 11 38
-8.2366648 7.037261 -1.1649617 30 39
-2.7185185 2.5138524 -0.55474341 8 32
-8.5187607 7.5261655 -1.6339608 29 33
-3.0628529 2.3981318 -0.39496973 7 40
-11.104359 8.145031 -1.3157805 26 41
-3.1934667 2.5639441 -0.56384605 14 34
-10.735735 8.0196714 -1.763854 15 35
-2.9579053 3.1344655 -0.23191586 10 48
-9.8486509 9.7664852 -0.66395694 14 49
-3.0877533 3.3767838 -0.40981653 6 42
-9.1916733 9.3567791 -1.0963912 25 43
-3.611479 3.2815864 -0.20460896 6 50
-10.036967 8.575408 -0.47517189 25 51
-3.781523 3.4968274 -0.39979959 6 44
-10.045067 8.7351208 -0.95396423 28 45
-4.4382157 3.4500823 -0.16897598 10 52
-10.00221 7.4039464 -0.30022609 28 53
-4.5954437 3.6895516 -0.38723433 8 46
-10.860238 8.1126757 -0.81006205 4 47
-4.4421782 4.6419806 0.11198712 14 60
-8.7654581 8.6923294 0.28857636 9 61
-4.8109932 5.2063241 -0.12896235 8 54
-9.6366091 9.7925997 -0.16842823 12 55
-5.7987127 5.2505789 0.22942227 10 62
-9.4683065 8.161293 0.44106352 1 63
-6.4932351 6.0571575 -0.05616742 18 56
-8.9080181 7.7600131 -0.0046083736 14 57
-2.2133534 2.3668964 -0.40696976 5 36
-6.5381894 6.5771036 -1.1087778 12 37
-2.8117352 2.2704053 0.020046879 9 58
-8.4818697 6.3729987 0.12186744 10 59
-2.5868926 2.3390777 -0.39598286 11 38
-8.290884 7.1237359 -1.1754395 39 39
-2.7143848 2.5241282 -0.55533612 8 32
-8.3334379 7.403976 -1.6023743 69 33
-3.05458 2.4054444 -0.39476767 9 40
-11.108804 8.196104 -1.3190143 27 41
-3.1847522 2.5716071 -0.56357318 14 34
-10.868653 8.1663494 -1.7894323 36 35
-2.9491405 3.1427133 -0.23191586 10 48
-10.030694 10.002722 -0.67811012 26 49
-3.0756309 3.3824453 -0.40945971 6 42
-9.1752567 9.3923912 -1.0975573 25 43
-3.5993505 3.2889631 -0.2044414 6 50
-10.016012 8.6060085 -0.47531575 15 51
-3.7761235 3.5114474 -0.40026394 6 44
-9.9275284 8.6817179 -0.94510078 25 45
-4.4301381 3.4636939 -0.16903606 10 52
-9.9638519 7.4187131 -0.29969546 35 53
-4.5897799 3.7061315 -0.38762772 6 46
-4.4319549 4.6572652 0.11205683 15 60
-8.7156658 8.6913605 0.28773507 13 61
-4.7910228 5.21385 -0.12881684 8 54
-9.3057022 9.5093079 -0.16310816 41 55
-5.7795925 5.2627134 0.22924638 9 62
-6.4529562 6.0533733 -0.055965018 18 56
-8.9088783 7.8046274 -0.0046200757 19 57
-2.2022676 2.3690932 -0.40622211 5 36
-6.4851451 6.5625734 -1.1030796 17 37
-2.8065386 2.279999 0.020057974 9 58
-8.459733 6.3957257 0.1218215 9 59
-2.5843513 2.3507545 -0.39665976 10 38
-8.2877636 7.1639099 -1.1780055 30 39
-2.7068834 2.532171 -0.55533612 8 32
-8.3217649 7.4379044 -1.6043662 74 33
-3.0427506 2.41079 -0.39416158 7 40
-8.8240681 6.5509424 -1.0500374 18 41
-3.177108 2.5810452 -0.56357318 14 34
-11.023111 8.3336906 -1.8189255 21 35
-2.9411652 3.15291 -0.23202331 7 48
-3.0615742 3.3871233 -0.40892446 6 42
-9.1834488 9.456749 -1.1018889 8 43
-3.5910468 3.3009808 -0.20452517 6 50
-9.9299488 8.5834084 -0.47243813 25 51
-3.7627757 3.519912 -0.39995438 8 44
-11.793404 10.375356 -1.1256578 2 45
-4.4198413 3.4768233 -0.16903606 10 52
-9.6985712 7.2660251 -0.29236346 12 53
-4.575665 3.7172165 -0.38736543 6 46
-9.8864737 7.4743695 -0.74062818 30 47
-4.4153681 4.6674891 0.11198712 14 60
-4.7741833 5.2265658 -0.12878045 7 54
-9.0738525 9.32759 -0.15952875 16 55
-5.7654257 5.2811894 0.22930501 10 62
-9.3970404 8.1946735 0.43993515 30 63
-6.4204206 6.0587678 -0.05583851 18 56
-8.9847116 7.918303 -0.0046715662 16 57
-2.1992693 2.3799889 -0.40696976 5 36
-6.4461632 6.5619526 -1.0997555 19 37
-2.7966647 2.2857842 0.020035785 9 58
-8.4311705 6.4135318 0.12168366 9 59
-2.5788312 2.3597534 -0.39688542 10 38
-8.2679729 7.1897717 -1.1782193 30 39
-2.6964779 2.5374796 -0.55474341 8 32
-8.2658033 7.4321179 -1.5978214 65 33
-3.0418088 2.4247684 -0.39496973 7 40
-8.8269253 6.5937757 -1.0527005 24 41
-3.1633 2.5854445 -0.56248206 19 34
-10.941524 8.3231392 -1.8095294 20 35
-2.931798 3.1616225 -0.23202331 8 48
-9.9121027 10.00247 -0.67409366 28 49
-3.0555055 3.4006364 -0.40945971 6 42
-11.02684 11.422614 -1.3271314 2 43
-3.5797706 3.3102639 -0.2044414 6 50
-9.9300795 8.635128 -0.47366112 23 51
-3.7465079 3.5255945 -0.39933527 9 44
-9.9938507 8.8449202 -0.95639449 0 45
-4.4079394 3.4886808 -0.16897598 10 52
-9.6817617 7.298378 -0.29250821 12 53
-4.5646167 3.7307758 -0.38736543 7 46
-10.059697 7.6523399 -0.75530237 17 47
-4.3987617 4.6776557 0.11191741 14 60
-8.9946766 9.0766792 0.29871908 33 61
-4.7546229 5.2362657 -0.12867132 7 54
-9.0391874 9.3472824 -0.15940616 24 55
-5.7467918 5.2955623 0.22918776 11 62
-9.1322842 8.0116167 0.42865115 52 63
-6.3806591 6.0571351 -0.055648755 18 56
-2.1993279 2.3934271 -0.40821585 4 36
-6.3709178 6.5216856 -1.0900211 29 37
-2.7918153 2.2948554 0.020046879 9 58
-8.4100504 6.4346213 0.12163772 9 59
-2.5678444 2.3629086 -0.39620852 11 38
-8.2822914 7.2429404 -1.1831375 30 39
-2.6879444 2.5436404 -0.55444711 8 32
-8.1980276 7.4126849 -1.5887153 30 33
-3.0303681 2.4295194 -0.39436364 10 40
-8.7798252 6.5968723 -1.0492765 14 41
-3.1575978 2.5955262 -0.56275487 16 34
-10.883592 8.3271551 -1.8037874 16 35
-2.9229572 3.1697974 -0.23202331 6 48
-9.913578 10.059993 -0.67610186 36 49
-3.0473244 3.4106419 -0.40963814 6 42
-3.5646594 3.314805 -0.20410626 6 50
-9.9435396 8.6957178 -0.47545967 29 51
-3.7366476 3.5360432 -0.39933527 6 44
-4.3966155 3.499732 -0.1689159 10 52
-9.7744608 7.4111562 -0.29593301 21 53
-4.5510964 3.7409739 -0.3871032 8 46
-10.060485 7.6973867 -0.75697255 24 47
-4.3774862 4.6811576 0.11170829 14 60
-9.0731478 9.2071505 0.30217791 31 61
-4.7440019 5.2539759 -0.12878045 7 54
-8.9603739 9.3177118 -0.15847453 12 55
-5.7261157 5.3061547 0.22895324 9 62
-9.0873919 8.017252 0.42759326 21 63
-6.3521471 6.0638828 -0.055547554 15 56
-2.1872811 2.3936999 -0.40721899 4 36
-6.286262 6.4710798 -1.0786247 22 37
-2.7853961 2.3026428 0.020046879 9 58
-8.3872938 6.4544225 0.1215688 9 59
-2.5612361 2.3700705 -0.39620852 11 38
-8.2859249 7.2870526 -1.1865588 25 39
-2.6708012 2.5415924 -0.55237275 9 32
-8.1831541 7.440877 -1.5898536 46 33
-3.0266693 2.4404702 -0.39476767 7 40
-3.1533921 2.606859 -0.56330043 14 34
-10.868152 8.3635616 -1.8050925 12 35
-2.9086952 3.1720595 -0.23159346 6 48
-9.9050217 10.107614 -0.6774407 34 49
-3.0364649 3.4176488 -0.40945971 6 42
-10.17293 10.656527 -1.2315032 6 43
-3.5583074 3.327476 -0.20427382 6 50
-9.901207 8.707613 -0.47459635 25 51
-3.7253137 3.5450892 -0.39918047 8 44
-9.3957987 8.4096699 -0.90364271 26 45
-4.3837037 3.5094972 -0.1687957 10 52
-9.7473679 7.4335732 -0.29574007 21 53
-4.5360184 3.7498541 -0.38670981 8 46
-10.012053 7.704752 -0.75494438 4 47
-4.3671203 4.6962924 0.11177799 14 60
-9.290905 9.4809351 0.31031075 29 61
-4.7212954 5.258276 -0.12856218 9 54
-9.0822105 9.4973507 -0.16109781 11 55
-5.7054253 5.3166728 0.2287187 9 62
-9.1262693 8.0969868 0.4304848 17 63
-6.3308597 6.0774426 -0.055509601 15 56
-2.1761663 2.3957725 -0.40647134 5 36
-6.3773932 6.6039844 -1.0976188 24 37
-2.7754762 2.3083398 0.020024691 9 58
-8.3633623 6.4756079 0.12149989 9 59
-2.5527382 2.3763056 -0.39598286 11 38
-8.2508631 7.2997475 -1.1846343 25 39
-2.6661057 2.5522413 -0.5529654 9 32
-8.1566582 7.4611158 -1.5889999 29 33
-3.0194149 2.44944 -0.39476767 7 40
-3.1441197 2.6149373 -0.56302768 14 34
-10.971852 8.4953175 -1.8264946 27 35
-2.8952341 3.1762486 -0.23127104 14 48
-9.9279585 10.191336 -0.68107462 36 49
-3.0223553 3.4221644 -0.40892446 5 42
-3.5396857 3.3298044 -0.20377108 5 50
-9.9426899 8.7965498 -0.47783372 8 51
-3.7190998 3.5602639 -0.39964482 6 44
-9.3708057 8.4375114 -0.90364271 9 45
-4.3701572 3.5199804 -0.16867551 10 52
-9.9790678 7.6572094 -0.30345795 2 53
-4.5310087 3.7684011 -0.38723433 8 46
-4.3518095 4.7077613 0.11174314 15 60
-9.3115635 9.558588 0.31194666 6 61
-4.7016783 5.267786 -0.12845305 6 54
-9.2413816 9.7213812 -0.16443203 13 55
-5.6925421 5.3363132 0.22883597 9 62
-9.0858011 8.1093893 0.42970902 21 63
-6.3099222 6.0934219 -0.055484302 15 56
-9.2864618 8.3762541 -0.0048783068 14 57
-2.1717086 2.4051642 -0.40696976 5 36
-6.4004045 6.6672869 -1.104979 21 37
-2.7747512 2.3216977 0.020069066 9 58
-8.3409586 6.4979339 0.12145395 9 59
-2.5500281 2.3879437 -0.39665976 10 38
-8.2544212 7.3466702 -1.1882695 39 39
-2.6656454 2.5669999 -0.55444711 8 32
-8.218977 7.5630322 -1.6055045 75 33
-3.0136762 2.459646 -0.39496973 8 40
-3.1333086 2.6217108 -0.56248206 17 34
-11.00917 8.5765753 -1.8369347 21 35
-2.8884797 3.187784 -0.23148596 12 48
-9.8059559 10.12603 -0.67476308 15 49
-3.0108743 3.4296191 -0.40874606 5 42
-9.8729143 10.465895 -1.2026817 19 43
-3.5326941 3.3430386 -0.20393866 5 50
-9.9583521 8.8632174 -0.47984806 4 51
-3.6999028 3.5629835 -0.39871612 6 44
-9.7730227 8.852314 -0.94495779 25 45
-4.3581419 3.5316722 -0.16861543 11 52
-4.5121565 3.7754242 -0.38657868 8 46
-9.6133728 7.4891944 -0.7282207 4 47
-4.3391757 4.7221241 0.11177799 15 60
-9.4125214 9.7197533 0.31629357 7 61
-4.6860285 5.2817116 -0.12845305 8 54
-8.7221355 9.2298498 -0.15567966 3 55
-5.6752305 5.3518071 0.22877733 10 62
-9.1003695 8.1710281 0.43154266 30 63
-6.2889476 6.1093292 -0.055459004 14 56
-9.3074856 8.4454317 -0.0049024918 5 57
-2.1579351 2.4042134 -0.40572369 5 36
-6.3792214 6.6848111 -1.1047415 20 37
-2.7647898 2.3273447 0.020046879 9 58
-8.3169184 6.5189528 0.12138502 9 59
-2.5414851 2.3941367 -0.39643416 10 38
-8.322957 7.4520435 -1.2013134 33 39
-2.649493 2.5666406 -0.55266911 9 32
-8.1732569 7.5658684 -1.6009516 56 33
-3.0002134 2.463526 -0.39416158 8 40
-10.956487 8.4345837 -1.3211068 22 41
-3.1255157 2.6309965 -0.56248206 15 34
-10.97431 8.6018639 -1.8353686 21 35
-2.8803451 3.1978247 -0.23159346 13 48
-9.84237 10.224162 -0.6793533 24 49
-2.9967554 3.4340351 -0.40821081 6 42
-10.338066 11.024335 -1.2633238 15 43
-3.5256538 3.3562615 -0.20410626 6 50
-9.9245644 8.8860588 -0.47948834 4 51
-3.6878822 3.5725584 -0.39856136 9 44
-9.7614594 8.8947096 -0.94638735 18 45
-4.3507423 3.5471144 -0.16873562 10 52
-4.4963536 3.7849405 -0.38618529 8 46
-4.3197508 4.7290726 0.11163858 15 60
-9.2338791 9.5920677 0.31124556 19 61
-4.6676908 5.2925935 -0.12838028 8 54
-8.6481571 9.20613 -0.1548461 20 55
-5.6462727 5.3562398 0.22824965 9 62
-9.1724977 8.28508 0.4361268 23 63
-6.2636399 6.1209731 -0.055395752 14 56
-2.1551766 2.4146714 -0.40647134 6 36
-6.4193091 6.7645402 -1.1149508 21 37
-2.7613328 2.3376408 0.020069066 9 58
-8.289259 6.5347247 0.12124719 9 59
-2.5333467 2.399858 -0.39620852 10 38
-8.2311802 7.4113879 -1.1910493 43 39
-2.6423151 2.5740294 -0.55266911 9 32
-8.0724001 7.5144758 -1.5853006 74 33
-2.9887197 2.4680939 -0.39355552 7 40
-11.115499 8.6065388 -1.3431728 25 41
-3.1181562 2.6397142 -0.56248206 16 34
-10.891072 8.5858288 -1.8254507 25 35
-2.875401 3.2103186 -0.23191586 8 48
-9.8662739 10.306445 -0.68298721 28 49
-2.9910707 3.4469039 -0.40874606 5 42
-9.8940248 10.610044 -1.2126776 5 43
-3.5104933 3.3605664 -0.20377108 5 50
-11.860343 10.6791 -0.57445079 2 51
-3.6778913 3.5828431 -0.39856136 6 44
-9.7365818 8.9219332 -0.94638735 11 45
-4.3408198 3.5592504 -0.16873562 11 52
-9.8110313 7.6652179 -0.30037078 18 53
-4.4857664 3.7974818 -0.38618529 9 46
-9.9212732 7.821301 -0.75494438 33 47
-4.3011494 4.7351961 0.11149916 14 60
-9.4877329 9.9110165 0.3207339 3 61
-4.6502557 5.3026004 -0.12830754 8 54
-8.6101284 9.2170925 -0.15462546 7 55
-5.6399722 5.3802657 0.22860144 11 62
-9.1715174 8.3308201 0.43718466 19 63
-6.2422428 6.1342349 -0.055357803 14 56
-9.1098766 8.3623009 -0.0048236963 20 57
-2.1453691 2.4180868 -0.40597293 5 36
-6.3624172 6.7445555 -1.1085403 33 37
-2.7467716 2.3393397 0.020013597 9 58
-8.2698336 6.5592909 0.12124719 8 59
-2.5204604 2.4018805 -0.39530599 11 38
-8.266633 7.4878426 -1.1993887 26 39
-2.6445551 2.5915487 -0.55474341 8 32
-8.274044 7.7481332 -1.6294079 28 33
-2.9920969 2.4858515 -0.39496973 7 40
-8.8675327 6.9081593 -1.0740056 7 41
-3.116344 2.6540933 -0.56357318 14 34
-10.836032 8.5946941 -1.8204916 17 35
-2.8592229 3.2113779 -0.23137851 14 48
-9.843915 10.344357 -0.68356103 17 49
-2.9782283 3.4527469 -0.40838921 6 42
-3.5019467 3.372354 -0.20385489 6 50
-9.9102526 8.9766188 -0.48128688 2 51
-3.662972 3.5895531 -0.39809701 8 44
-9.6836643 8.926446 -0.94381416 12 45
-4.3240719 3.5670259 -0.16849525 11 52
-9.7568073 7.6695814 -0.29940605 15 53
-4.4744792 3.8107748 -0.38618529 9 46
-9.8073015 7.7787471 -0.74802488 31 47
-4.2911015 4.7523899 0.11160372 15 60
-8.774621 9.2207031 0.29755059 6 61
-4.6331878 5.3148675 -0.12827115 6 54
-8.5106173 9.1649294 -0.15332606 11 55
-5.6138868 5.3872871 0.22819103 9 62
-9.3400526 8.5346212 0.44642344 20 63
-6.2154808 6.1442938 -0.0552819 13 56
-9.0820856 8.3865795 -0.0048221359 19 57
-2.1408103 2.4274175 -0.40647134 5 36
-6.3124938 6.7315335 -1.103317 31 37
-2.7413378 2.3487802 0.020024691 9 58
-8.2487726 6.5825505 0.12122422 8 59
-2.5118887 2.4079726 -0.39508036 11 38
-8.273777 7.5391216 -1.2036654 43 39
-2.625586 2.5882752 -0.55237275 9 32
-8.1746473 7.7007041 -1.614326 52 33
-2.9801283 2.4908898 -0.39436364 10 40
-8.83603 6.9258404 -1.072674 23 41
-3.1054471 2.6607492 -0.56302768 14 34
-10.86473 8.6700935 -1.8296266 40 35
-2.844388 3.2138646 -0.23094864 12 48
-9.6731482 10.22549 -0.67380679 7 49
-2.9679711 3.4615676 -0.40838921 6 42
-10.615581 11.520119 -1.3094718 16 43
-3.4890549 3.3799479 -0.20368731 6 50
-3.6523061 3.600405 -0.39809701 6 44
-9.2197733 8.5495653 -0.90106946 12 45
-4.3103933 3.577286 -0.16837507 11 52
-9.6728487 7.6501241 -0.29752484 20 53
-4.4601226 3.8214362 -0.385923 10 46
-10.14465 8.0954676 -0.77558374 5 47
-4.2743111 4.7621241 0.11153401 14 60
-8.7884474 9.2902708 0.29895279 7 61
-4.6160893 5.3270793 -0.12823477 7 54
-8.4359121 9.1387081 -0.152468 11 55
-5.6007552 5.4066958 0.22830829 10 62
-8.7510996 8.0442286 0.41941237 10 63
-6.190134 6.1556563 -0.055218648 13 56
-9.1421537 8.4924383 -0.0048673847 25 57
-2.1309819 2.4307747 -0.40597293 5 36
-6.2924933 6.7502341 -1.103317 31 37
-2.7343564 2.3569038 0.020024691 9 58
-8.2198486 6.5994849 0.12108639 9 59
-2.5061631 2.4167945 -0.39530599 11 38
-8.2982788 7.6066365 -1.2105081 26 39
-2.6207035 2.5988395 -0.5529654 9 32
-8.2897081 7.8556476 -1.641644 29 33
-2.9772933 2.5035629 -0.39496973 8 40
-11.005623 8.6792469 -1.3391781 24 41
-3.0945365 2.6673644 -0.56248206 13 34
-11.043057 8.8661594 -1.8640789 13 35
-2.841435 3.2297876 -0.23148596 7 48
-2.9563949 3.4688425 -0.40821081 6 42
-10.598853 11.570671 -1.3116376 6 43
-3.480442 3.3916805 -0.20377108 6 50
-11.486352 10.528991 -0.5608539 18 51
-3.6401913 3.6098223 -0.39794225 6 44
-9.2031164 8.5850487 -0.90192717 15 45
-4.3028293 3.5926223 -0.16849525 10 52
-9.5624914 7.6090746 -0.29482356 23 53
-4.4502754 3.8359559 -0.38605413 8 46
-10.091006 8.1017847 -0.77331698 16 47
-4.254837 4.7688169 0.1113946 15 60
-8.7813873 9.3381548 0.29965389 5 61
-4.5950427 5.334692 -0.12808926 7 54
-8.4195757 9.1754856 -0.15266412 15 55
