# .PCD v0.7 - Point Cloud Data file format
VERSION 0.7
FIELDS x y z
SIZE 4 4 4
TYPE F F F
COUNT 1 1 1
WIDTH 1478
HEIGHT 1
VIEWPOINT 0 0 0 1 0 0 0
POINTS 1478
DATA ascii
171.8747701 12.31502815 -4.392447312
171.2254068 12.19136869 -4.381403391
170.6905928 12.06779941 -4.371960181
170.0555218 11.95213856 -4.361274797
169.3552195 11.84383273 -4.349821266
169.398703 11.7039648 -4.348156541
nan nan nan
nan nan nan
nan nan nan
166.7185208 11.32066575 -4.305010597
166.1964281 11.22660348 -4.296328464
165.7240133 11.13266567 -4.288346869
165.2812967 11.03979367 -4.280804249
164.8284075 10.95074892 -4.273192567
164.3454311 10.86723106 -4.265263389
163.9320476 10.78119813 -4.258266467
253.2833068 2.840306014 -5.36742839
163.1147235 10.61677883 -4.244553853
162.7406626 10.5354978 -4.238204927
162.3963083 10.45385316 -4.23226984
nan nan nan
nan nan nan
nan nan nan
nan nan nan
nan nan nan
nan nan nan
nan nan nan
nan nan nan
nan nan nan
nan nan nan
220.2551399 1.120237519 -4.890752638
nan nan nan
204.4162223 2.772330983 -4.69806827
193.2126888 4.181496025 -4.565053822
214.1340257 0.7539966028 -4.802857544
212.5919736 0.6947999522 -4.781231862
211.4109177 0.5884474869 -4.763896174
210.1561378 0.5023261557 -4.74585682
208.808078 0.4404757602 -4.72690225
207.5147776 0.3786003438 -4.708712812
195.6376719 2.17292717 -4.571783101
205.4171266 0.1946021253 -4.678226581
204.3122167 0.1236353084 -4.662534831
203.1634957 0.06840027659 -4.646477394
202.624475 -0.09408585292 -4.637284455
202.5810955 -0.3484658707 -4.633617221
202.5122777 -0.5979128635 -4.629696017
202.5602736 -0.8705413271 -4.627079572
202.5288661 -1.127741561 -4.623616926
202.4769638 -1.380831857 -4.619956154
202.5611629 -1.662614763 -4.617789904
202.5709354 -1.92945466 -4.614838727
202.3843394 -2.153940241 -4.609805647
nan nan nan
205.1355411 -3.304081866 -4.633055788
205.0614065 -3.562910566 -4.629195216
205.0788955 -3.842981757 -4.626330094
205.13914 -4.13370312 -4.623934875
205.1642299 -4.416902568 -4.621188974
205.3534293 -4.740739838 -4.620174585
205.2646359 -4.997663601 -4.616280008
202.2266732 -4.513740676 -4.581895254
201.4071442 -4.573131253 -4.57064072
200.4864532 -4.600739947 -4.55843098
199.6873486 -4.653871412 -4.547556762
198.8307445 -4.686218354 -4.536178432
198.0230511 -4.725860232 -4.525380922
150.3932568 8.047352924 -4.040844626
150.4892847 7.94404502 -4.041055437
181.827884 -0.9406944063 -4.355120483
181.5795892 -1.0654113 -4.350743024
181.556838 -1.253747053 -4.348648166
181.5477887 -1.446295679 -4.34670728
181.5907649 -1.654589346 -4.345296741
181.5802298 -1.847558625 -4.34336993
181.5833309 -2.044992331 -4.341594667
181.6047945 -2.248541585 -4.340012534
181.615917 -2.44943825 -4.338344254
181.631036 -2.652108772 -4.336728438
181.64061 -2.853556049 -4.335073896
181.6493943 -3.055275766 -4.333426509
181.6431494 -3.252605538 -4.331648326
181.6741403 -3.462639948 -4.330243366
181.7042817 -3.673096542 -4.328843835
nan nan nan
nan nan nan
170.0394204 -0.2389565063 -4.213452004
nan nan nan
185.7448258 -6.113238121 -4.358624303
194.2052187 -9.361105747 -4.436196314
193.8002229 -9.467705918 -4.430449998
193.8460266 -9.736704481 -4.428944727
208.713912 -15.48826843 -4.565027793
208.7195708 -15.80313634 -4.562744602
208.649158 -16.09011382 -4.55978173
210.964575 -17.28819908 -4.578782304
166.6530992 -0.5182358613 -4.170350249
nan nan nan
208.9292331 -17.46202701 -4.553328271
208.8713842 -17.7576911 -4.550603036
208.8773842 -18.07943268 -4.548483031
179.2285017 -6.363623405 -4.278737983
179.0983112 -6.51073607 -4.27623873
nan nan nan
nan nan nan
209.0446263 -19.76054799 -4.539462684
209.0748089 -20.09905562 -4.537696868
nan nan nan
209.0484751 -20.74197382 -4.53346716
209.0791652 -21.08401736 -4.531776603
209.1129941 -21.42870234 -4.530136237
169.5734329 -4.077656955 -4.181468148
169.4977357 -4.209583911 -4.179861181
209.1694119 -22.45014295 -4.524960747
173.9421509 -6.670030157 -4.21621775
nan nan nan
nan nan nan
162.4587695 -1.789527307 -4.114214615
162.4724042 -1.935221419 -4.113623006
162.5349382 -2.105115942 -4.113460489
162.5337625 -2.244955724 -4.112760498
162.5768708 -2.407056566 -4.1124494
162.6102832 -2.565202607 -4.112063271
162.6251074 -2.714831591 -4.111529603
162.6482112 -2.869260378 -4.111075536
nan nan nan
nan nan nan
209.3744097 -27.51377148 -4.502464532
209.3499993 -27.85314638 -4.50078363
209.3684382 -28.21614486 -4.499490378
209.43387 -28.60559031 -4.49861458
209.3829752 -28.93458583 -4.496793186
209.4758962 -29.34220079 -4.496196936
209.4835258 -29.70553304 -4.494915198
209.5465436 -30.10072179 -4.494120056
209.5159333 -30.44598798 -4.492575444
163.4347581 -5.064240161 -4.110614889
163.3475452 -5.168640851 -4.109374427
nan nan nan
nan nan nan
nan nan nan
160.4500268 -4.101468252 -4.083691139
160.1895809 -4.091376662 -4.081142047
160.1017249 -4.181477758 -4.080018437
160.1081139 -4.327475339 -4.079675077
nan nan nan
nan nan nan
145.5991147 4.095418334 -3.960891637
145.5785193 4.033061199 -3.960542337
145.5194324 3.994442005 -3.959888053
145.4433021 3.966717404 -3.959103137
145.3544679 3.947394391 -3.958223333
145.350139 3.875002808 -3.958031418
145.2865139 3.8402218 -3.957368221
145.2228217 3.805774657 -3.956711801
nan nan nan
nan nan nan
nan nan nan
nan nan nan
nan nan nan
210.1286247 -40.41513438 -4.474387069
210.0884534 -40.795669 -4.473526836
161.3310396 -7.833305295 -4.08421893
210.1141858 -41.63451188 -4.472746705
210.1138707 -42.0479173 -4.472299988
210.140304 -42.48205969 -4.47209792
157.0566469 -5.468336738 -4.049554814
nan nan nan
163.9974742 -10.71996322 -4.104473377
163.810904 -10.76546552 -4.102872758
163.5758926 -10.77470594 -4.100902936
163.3614001 -10.79736442 -4.099111419
163.1592301 -10.82772081 -4.097432515
162.949222 -10.85102454 -4.095706906
162.7274538 -10.86415859 -4.0939036
nan nan nan
162.3246846 -10.91691714 -4.090662757
162.0521167 -10.88698972 -4.088499297
161.9624038 -10.99576107 -4.087800016
161.7893538 -11.03985798 -4.0864548
161.6360832 -11.09843594 -4.085280396
161.4356313 -11.11915151 -4.083744856
161.2471809 -11.14808462 -4.082318653
161.0628151 -11.17913258 -4.080938591
160.8981138 -11.22484937 -4.079727784
160.7023685 -11.24455354 -4.078284892
153.9653194 -5.930386189 -4.024860833
153.6921033 -5.845851695 -4.022797491
nan nan nan
nan nan nan
159.1182698 -10.81631537 -4.066435636
158.9716787 -10.86627499 -4.065455668
158.8891854 -11.04843533 -4.065097658
nan nan nan
159.0180876 -11.51978649 -4.06660495
158.8246197 -11.52901406 -4.065310646
158.6502373 -11.55367832 -4.064181861
158.5022542 -11.60062282 -4.063275896
158.3244255 -11.62023544 -4.062142903
158.1579738 -11.64894077 -4.061112318
157.9916645 -11.67678815 -4.060095651
157.8218034 -11.70041648 -4.059060745
157.6558096 -11.72655365 -4.058068346
157.4936562 -11.75522367 -4.05711944
157.3279709 -11.77967185 -4.056152044
157.1624405 -11.80328048 -4.055197052
157.0007348 -11.82945442 -4.054284218
156.8319197 -11.84793828 -4.053324862
156.6813757 -11.88282124 -4.052525431
156.5057079 -11.89271065 -4.051529553
156.3554197 -11.92603316 -4.050753663
151.663119 -7.528386149 -4.012618027
151.5891524 -7.603974076 -4.012408587
155.8873651 -12.00398772 -4.048347331
155.7481596 -12.04487936 -4.04770506
155.6019112 -12.07805139 -4.047015779
151.2413943 -7.85397487 -4.011246408
149.231305 -5.960046853 -3.994926757
149.0021509 -5.862590593 -3.99343842
149.0036133 -6.000689447 -3.993888335
149.0216806 -6.157056985 -3.994490729
nan nan nan
149.0793461 -6.496239127 -3.995919548
nan nan nan
154.2454792 -12.2973182 -4.040923983
154.0595196 -12.27936249 -4.039994631
153.9825272 -12.37797189 -4.040005727
148.1643749 -6.214869434 -3.990643952
148.1185697 -6.304130539 -3.990782773
147.8812424 -6.181913853 -3.989273352
147.7685642 -6.195942791 -3.988846911
147.8223773 -6.396039091 -3.989879383
147.8915707 -6.615464496 -3.991064222
nan nan nan
nan nan nan
147.6950031 -6.820905879 -3.991151842
147.5680811 -6.818225437 -3.990654779
147.5258512 -6.913734436 -3.990919584
147.4411126 -6.959636459 -3.990814861
nan nan nan
147.1910952 -6.954548787 -3.989902925
146.9913642 -6.86069141 -3.988775788
146.9197469 -6.919977249 -3.98881717
151.194425 -12.28617083 -4.028714252
151.476086 -12.81784457 -4.032213421
147.0837234 -7.567047233 -3.992503228
147.0127802 -7.630552348 -3.992605249
nan nan nan
nan nan nan
nan nan nan
nan nan nan
nan nan nan
150.336637 -12.89634995 -4.029371067
150.3379048 -13.09054138 -4.030432308
150.2445341 -13.16146369 -4.03059817
nan nan nan
nan nan nan
nan nan nan
nan nan nan
152.7005911 -17.52183894 -4.060745689
nan nan nan
145.2669452 -7.644900494 -3.988466674
145.1664638 -7.661539198 -3.988389558
144.9562039 -7.522697881 -3.987197651
144.8794216 -7.570792658 -3.987368747
144.8740307 -7.721102354 -3.988287248
144.7965789 -7.768887292 -3.988474006
144.7274787 -7.828744129 -3.988757084
nan nan nan
144.5997841 -7.964359398 -3.989464561
144.4685283 -7.932313471 -3.989114094
143.8325248 -7.142719268 -3.983332111
143.7351048 -7.153466033 -3.983312302
nan nan nan
144.160675 -8.124254775 -3.990107192
144.1009679 -8.198846843 -3.9905689
nan nan nan
nan nan nan
nan nan nan
146.9005533 -13.4458446 -4.027912247
146.7690578 -13.44528899 -4.027881621
146.6770939 -13.50801032 -4.028315101
143.6160795 -8.710592807 -3.993981719
146.4380346 -13.54273741 -4.028566613
143.4520851 -8.79246376 -3.994588352
143.4506123 -8.968197676 -3.995870284
nan nan nan
145.9989095 -13.67083924 -4.029622885
145.8456636 -13.62724332 -4.029373221
145.7404408 -13.6651684 -4.029718292
145.6252008 -13.68534637 -4.029946971
145.5025986 -13.69201109 -4.03008979
145.3850457 -13.70686721 -4.030302072
145.2675945 -13.72122443 -4.030521579
145.1502181 -13.73510673 -4.030748398
145.0329448 -13.74850002 -4.030982146
144.9325135 -13.79212867 -4.031444376
144.8200655 -13.81341165 -4.031756375
140.3501411 -5.714820553 -3.973551376
140.2919632 -5.768595958 -3.974065826
nan nan nan
144.3729669 -13.89844081 -4.033110292
nan nan nan
141.4656453 -8.72077544 -3.996033173
140.4789294 -6.979140512 -3.983589023
nan nan nan
143.5633604 -13.49300069 -4.031318712
141.2482035 -9.071643028 -3.999387392
nan nan nan
nan nan nan
140.5699894 -8.279374274 -3.994290732
140.6491421 -8.640832447 -3.99717662
140.2944627 -8.095442818 -3.993428536
nan nan nan
nan nan nan
139.7473995 -7.512609413 -3.989914417
nan nan nan
139.5809851 -7.539385064 -3.990656029
139.4475599 -7.440579374 -3.990207018
139.6141581 -8.012419473 -3.994740309
nan nan nan
139.6371813 -8.47775658 -3.998823356
142.0484111 -14.25536116 -4.042280154
141.937227 -14.26518921 -4.042774246
141.8222105 -14.26537276 -4.043205901
141.7170364 -14.28813662 -4.043816537
141.6099256 -14.30589938 -4.044399457
141.5028242 -14.32324688 -4.044989527
141.3957514 -14.3401865 -4.045586329
141.2830774 -14.34282041 -4.046084469
141.170516 -14.34500437 -4.04658871
141.0746772 -14.38858225 -4.047417018
140.9877859 -14.45509833 -4.048431651
140.8643778 -14.42812618 -4.048742757
140.7843313 -14.51266324 -4.049916934
138.0802404 -7.699258387 -3.998076549
138.0268982 -7.783594979 -3.999140107
nan nan nan
137.8634191 -7.80179348 -4.000132937
137.8450735 -7.98424666 -4.001986649
137.7916356 -8.072749088 -4.003123422
137.7124995 -8.090509392 -4.003718176
138.3766087 -10.21569596 -4.020822132
138.2768865 -10.19768611 -4.021197288
nan nan nan
138.1862 -10.47752836 -4.024462399
137.8082059 -9.634268125 -4.018330335
nan nan nan
137.6206241 -9.612434954 -4.019231579
137.106253 -8.307765562 -4.009357116
nan nan nan
137.1740058 -9.052762564 -4.016400013
137.109773 -9.125477518 -4.017542568
138.7716044 -14.76634568 -4.063719598
138.6651317 -14.77299379 -4.064488095
138.5731933 -14.82710078 -4.065652052
nan nan nan
nan nan nan
138.2524693 -14.83881552 -4.067976896
138.1516871 -14.86274814 -4.068935324
138.0576571 -14.91038154 -4.070099669
137.9593688 -14.94324807 -4.071153251
137.848964 -14.93240799 -4.071853651
137.745313 -14.94525837 -4.072760325
137.6403577 -14.9529078 -4.073633233
137.5380031 -14.96984969 -4.074593283
137.4356373 -14.98640949 -4.075560113
137.3319893 -14.99777533 -4.076492819
137.2295964 -15.01360191 -4.077473037
137.1259556 -15.02421961 -4.078418774
137.0259142 -15.04903038 -4.079495416
136.9246245 -15.06862223 -4.08053776
136.8244273 -15.09271785 -4.081629318
136.7264536 -15.1262094 -4.082812005
136.6170416 -15.11064622 -4.083580454
136.5211429 -15.15318098 -4.084862607
136.4009943 -15.08805061 -4.085215113
nan nan nan
136.0849818 -14.59963223 -4.082779459
135.9895547 -14.6354748 -4.084027289
135.8980513 -14.69057643 -4.085456979
nan nan nan
135.8102252 -15.2752459 -4.09259706
135.7112797 -15.30526957 -4.09385535
135.6093093 -15.32022188 -4.094989375
135.5026092 -15.31027065 -4.095907934
135.4034405 -15.33923526 -4.097188199
135.3041208 -15.36785762 -4.098476759
135.2011311 -15.37645837 -4.099592919
135.1068401 -15.43393314 -4.101168006
135.0105036 -15.48124999 -4.10266266
134.8689525 -15.54090596 -4.104768879
134.7733725 -15.62773666 -4.106717061
134.6641172 -15.59990195 -4.107553747
134.5574254 -15.58646636 -4.108533381
134.4638028 -15.65666789 -4.110309438
134.3652799 -15.6968985 -4.111816674
134.2505957 -15.6279647 -4.112298414
134.1385831 -15.57343503 -4.112921278
nan nan nan
nan nan nan
132.9932803 -9.266027678 -4.055430251
132.8833753 -9.043379881 -4.054193099
133.622856 -15.59709558 -4.118998543
132.7829817 -9.539642652 -4.060902826
132.7027045 -9.554290484 -4.062004118
133.3218103 -15.67845751 -4.123424635
133.2123441 -15.62538033 -4.124128329
nan nan nan
nan nan nan
nan nan nan
nan nan nan
nan nan nan
132.6049785 -15.75161598 -4.132976755
132.5050094 -15.790528 -4.134673855
132.4015162 -15.7892345 -4.135971415
132.3012067 -15.82744719 -4.137685944
132.1987726 -15.84039051 -4.139152145
132.0966526 -15.85796711 -4.140677055
131.9944208 -15.87518585 -4.142209841
131.8921113 -15.89205203 -4.143750193
131.7893849 -15.90357245 -4.145245707
131.6866016 -15.9147374 -4.146748424
131.5837782 -15.92554451 -4.148257833
131.4811417 -15.94099267 -4.149828036
131.3781932 -15.95108032 -4.151352073
131.2758403 -15.97579295 -4.15304494
131.1717037 -15.96019703 -4.154313666
131.0697553 -15.99918791 -4.156184243
130.9660155 -15.99285065 -4.157574122
nan nan nan
130.7607335 -16.05406688 -4.161196081
130.6571411 -16.05664976 -4.162716831
130.553951 -16.07885494 -4.164466297
130.4505194 -16.09572001 -4.166168473
130.3470573 -16.11721627 -4.167934603
130.243294 -16.12334957 -4.169540415
130.1395511 -16.13911748 -4.171266467
130.0356359 -16.11953277 -4.172602008
129.9317691 -16.16458387 -4.17468492
129.8276975 -16.18926809 -4.176549008
129.7234361 -16.21358522 -4.178422513
129.6190052 -16.23754251 -4.180304903
129.5144195 -16.26113787 -4.182195988
129.4097424 -16.27936194 -4.184038061
129.3048376 -16.30221461 -4.185947017
129.1997498 -16.32469921 -4.187865103
129.0950793 -16.32683058 -4.189555023
128.9887752 -16.37857004 -4.191847081
128.8865854 -16.30501285 -4.192655653
128.7779966 -16.40595714 -4.195566776
128.6729768 -16.40661301 -4.197287792
128.5793275 -16.16218393 -4.196042628
128.4913802 -15.83757261 -4.193801507
128.389363 -15.8172598 -4.195265982
128.2843517 -15.8514942 -4.197411248
nan nan nan
nan nan nan
127.9296706 -16.51561997 -4.210956956
127.8223619 -16.53823758 -4.213051222
127.714517 -16.56546652 -4.215217636
127.6076039 -16.57734109 -4.217204839
127.9932821 -10.54940427 -4.142236064
127.9055387 -10.58221335 -4.144145308
nan nan nan
127.1747749 -16.66588588 -4.225815201
127.0681229 -16.66590553 -4.227717006
126.9565013 -16.71529502 -4.230275569
126.857284 -16.63993001 -4.231215797
126.7442835 -16.69849434 -4.233923832
126.6341248 -16.72680826 -4.236250908
126.5237123 -16.75472367 -4.238588919
126.4095848 -16.8120328 -4.24133604
126.3051865 -16.78452259 -4.242962832
126.1953909 -16.80132063 -4.245197013
126.0879767 -16.79788336 -4.247171061
125.975978 -16.82876045 -4.249625872
125.8650498 -16.84931463 -4.251956039
125.7532637 -16.87442438 -4.254364099
125.6412362 -16.89912377 -4.256782815
125.5304374 -16.91351846 -4.259074377
125.4209421 -16.91761809 -4.261237282
125.3106083 -16.92626046 -4.263477911
125.2024886 -16.91969149 -4.265517634
125.0872549 -16.95717712 -4.268194953
124.9725222 -16.98928906 -4.270814346
124.858312 -17.01604445 -4.273374886
124.7438538 -17.04237025 -4.275946921
124.6308795 -17.05842616 -4.278386932
124.5168411 -17.07898582 -4.280908863
124.4026084 -17.09911841 -4.283441331
124.2881539 -17.11882783 -4.285984486
124.1734914 -17.13811214 -4.288538353
124.0577065 -17.16188817 -4.291175131
123.9426236 -17.18031275 -4.293750354
123.8273608 -17.19831837 -4.296335756
123.7128721 -17.2109826 -4.298858236
123.5972057 -17.22812612 -4.301464781
123.481368 -17.24483939 -4.304081574
123.3663566 -17.25622412 -4.306634529
123.250145 -17.27207113 -4.309272189
123.1337309 -17.28748215 -4.311920469
123.0182252 -17.29757331 -4.314503618
122.9003449 -17.31698925 -4.317248659
122.7811075 -17.34082891 -4.320081354
122.6616337 -17.36420704 -4.322925729
122.5407294 -17.39198892 -4.325859319
122.4219079 -17.40958846 -4.328650494
122.3028825 -17.42674211 -4.331452582
122.1836306 -17.44343283 -4.334266125
122.0641848 -17.45967628 -4.337090556
121.9420168 -17.48514186 -4.340083937
121.820849 -17.50529488 -4.343010569
121.6981745 -17.52981187 -4.34602817
121.5778017 -17.54419653 -4.348899364
121.4572548 -17.55813113 -4.351780896
121.3324934 -17.58604355 -4.354915444
121.2209297 -17.5653288 -4.357255597
121.0834615 -17.63558745 -4.361142304
120.9633557 -17.64281395 -4.363990153
120.9046903 -17.43841435 -4.363251561
120.8784986 -17.12850068 -4.360687991
120.7755267 -17.08220306 -4.362623211
120.6597296 -17.07863175 -4.365305902
nan nan nan
120.2054066 -17.78631193 -4.383214961
120.0808516 -17.79973192 -4.386311166
119.9530517 -17.82217484 -4.389587621
119.8265233 -17.83936807 -4.392792122
119.6981788 -17.86080717 -4.396094541
119.5695896 -17.88172534 -4.39940961
119.4391221 -17.90687794 -4.402823739
119.3099643 -17.92676537 -4.406165607
119.1805421 -17.94613465 -4.409520575
119.052482 -17.96025161 -4.412802367
118.9242011 -17.97387457 -4.416096173
118.7477265 -17.96467029 -4.420374588
118.6134826 -17.97508203 -4.423814948
118.4742655 -18.01512474 -4.42767917
118.3363568 -18.04989238 -4.431471627
118.1963508 -18.08877374 -4.435368273
120.3887792 -11.90614533 -4.320734259
nan nan nan
117.7952681 -18.1458124 -4.446080429
117.6646263 -18.15440581 -4.449498169
117.5228731 -18.19040269 -4.453471894
117.3898853 -18.20255917 -4.457007458
117.251115 -18.22809588 -4.460830139
117.1138735 -18.24841743 -4.464576371
116.9763295 -18.2681656 -4.468337248
116.8385042 -18.28734749 -4.472112324
116.6984589 -18.31055939 -4.475995316
116.560047 -18.32858183 -4.479799825
116.4193726 -18.35062001 -4.483712042
116.278393 -18.37206501 -4.487640293
116.141069 -18.38374287 -4.491394758
116.0054842 -18.39026688 -4.495068413
115.8515792 -18.43741144 -4.499609902
115.7032445 -18.47016566 -4.503884823
115.5524708 -18.50682917 -4.50827299
115.4074596 -18.52917633 -4.512390384
115.2621078 -18.55089488 -4.516524969
115.1143595 -18.57653694 -4.520770908
114.9683266 -18.59699823 -4.524936872
114.8198619 -18.62134763 -4.529217346
114.668916 -18.64959206 -4.533610956
114.5197251 -18.67265014 -4.53792409
114.3680375 -18.69956507 -4.542352265
114.2181388 -18.7213192 -4.546700004
114.0656981 -18.7468961 -4.551163065
113.9151312 -18.76734068 -4.555542908
113.7575009 -18.80052756 -4.560240839
113.5949691 -18.8419402 -4.565158466
113.4477879 -18.85141367 -4.569389748
113.2889343 -18.88250069 -4.574143056
113.1503525 -18.87291523 -4.577999939
nan nan nan
113.142796 -18.33885234 -4.573876135
113.01496 -18.3108253 -4.577315327
nan nan nan
116.004518 -12.23947159 -4.442735651
115.9716889 -12.08517981 -4.442464805
115.8989045 -12.00549412 -4.443950742
nan nan nan
nan nan nan
nan nan nan
111.3782588 -19.15124651 -4.631486288
111.1796813 -19.23370759 -4.637966324
111.0252018 -19.23720203 -4.642558001
110.8378392 -19.29622584 -4.648554962
110.6852138 -19.29394455 -4.653076017
110.5323527 -19.29098963 -4.657612469
110.3409532 -19.3518149 -4.663783856
110.1668715 -19.38169692 -4.669222666
109.9871826 -19.41930811 -4.674900563
109.8174037 -19.43899892 -4.680164248
109.6472211 -19.45789835 -4.685447938
109.476697 -19.47601785 -4.69075049
109.2872456 -19.52303495 -4.696844883
109.097231 -19.56913164 -4.702964957
108.9360877 -19.56786034 -4.707886125
112.5158803 -13.70484888 -4.557681166
nan nan nan
108.3940555 -19.64776417 -4.725108932
108.1906176 -19.70616638 -4.731794954
108.0195005 -19.71344221 -4.737151896
107.8314927 -19.74492486 -4.743207243
107.6430051 -19.77550568 -4.749286685
107.4512249 -19.80930797 -4.755504359
107.258941 -19.84218147 -4.761745962
107.0633602 -19.87824673 -4.768125384
106.8927362 -19.87630332 -4.773491766
106.6563371 -19.96803579 -4.781540054
106.4734079 -19.98068418 -4.787415323
nan nan nan
nan nan nan
nan nan nan
119.7531206 -0.5541247043 -4.245915736
119.7213012 -0.4941015155 -4.246581736
105.6011724 -19.71931645 -4.813740969
105.5294354 -19.57366395 -4.815210241
105.3958948 -19.51222921 -4.81917743
nan nan nan
nan nan nan
104.2444607 -20.31681774 -4.861135994
104.0018788 -20.3897381 -4.869463144
103.779787 -20.43360193 -4.876975616
103.5815768 -20.44473978 -4.883543553
103.3522189 -20.49429411 -4.891357002
103.1407133 -20.51908251 -4.898465328
102.9318318 -20.5389058 -4.905476154
nan nan nan
nan nan nan
nan nan nan
108.5671108 -12.65336726 -4.678298149
108.5738196 -12.45867159 -4.677125174
108.3365356 -12.56111044 -4.685577742
101.1021312 -21.07476415 -4.969218777
nan nan nan
100.5642194 -21.22385051 -4.988060903
100.4428341 -21.12099353 -4.99170266
nan nan nan
nan nan nan
99.69756428 -21.25155464 -5.017628003
nan nan nan
nan nan nan
98.24687446 -22.15956313 -5.07113158
98.1854803 -21.97775633 -5.07250037
nan nan nan
98.02169747 -21.66230005 -5.076895349
98.05368689 -21.38062713 -5.07469442
97.82698466 -21.38313976 -5.082568794
97.93577691 -21.02111695 -5.077431213
97.8695901 -20.85053215 -5.079110465
nan nan nan
nan nan nan
96.43962973 -21.63912166 -5.131935541
96.18550659 -21.65906399 -5.140932593
95.90652628 -21.70284047 -5.150901073
95.63380478 -21.7379179 -5.160637649
95.3499679 -21.78225806 -5.170814688
95.06537581 -21.82502828 -5.181029721
94.77305413 -21.87335216 -5.191555139
102.4209656 -13.96414036 -4.895972101
102.2788311 -13.91362472 -4.900891696
106.6770936 -9.376630068 -4.73095864
106.6505034 -9.242669685 -4.731540412
106.6066717 -9.126248595 -4.732799167
106.4124915 -9.155757896 -4.739852723
106.232245 -9.170335657 -4.74637824
106.0118464 -9.221891401 -4.754455103
105.8306892 -9.234365795 -4.761031334
105.6528205 -9.242438024 -4.767490431
105.4234483 -9.297299022 -4.775934581
105.2007292 -9.344041654 -4.784131066
105.0288754 -9.342106308 -4.790385232
104.7755823 -9.413448332 -4.799770769
104.5696009 -9.439632997 -4.807350911
nan nan nan
nan nan nan
nan nan nan
88.31163571 -23.16155709 -5.42858903
nan nan nan
87.62639569 -23.24399188 -5.454018041
87.54719527 -23.05342517 -5.456679126
nan nan nan
86.83603048 -23.14546416 -5.483199609
86.4677488 -23.19812672 -5.496969773
86.10240902 -23.24542617 -5.510644624
85.74386914 -23.28421311 -5.524077114
85.34222229 -23.35604149 -5.539173366
85.00512972 -23.37150625 -5.551822026
94.89188154 -15.02974862 -5.173920473
nan nan nan
nan nan nan
83.30303904 -23.69213978 -5.616111425
70.69236079 -33.44084021 -6.097554474
91.18334497 -16.9474693 -5.314960242
82.59641162 -23.45085167 -5.642767559
82.43976538 -23.30668517 -5.648682251
71.35127682 -31.59783959 -6.072008661
71.30896991 -31.30475959 -6.073594971
71.52657739 -30.81529442 -6.065283778
71.60328221 -30.43629097 -6.062377944
71.65266206 -29.96918165 -6.060563524
72.00002231 -29.47333959 -6.047359909
91.09516212 -15.08430372 -5.318303948
91.06782571 -14.89521339 -5.319430822
91.05747278 -14.69450893 -5.31992478
91.00349829 -14.52627204 -5.32210236
90.96241811 -14.34928993 -5.323803492
90.92207882 -14.17233504 -5.325492946
nan nan nan
72.90491839 -26.40577493 -6.014250546
73.16344753 -25.92923276 -6.004658591
73.30953742 -25.53458873 -5.999385081
73.33501311 -25.09490367 -5.998898738
73.39626677 -24.74954525 -5.996939884
73.34983916 -24.49316059 -5.999102263
73.17157412 -24.3258114 -6.006331141
72.93962961 -24.19355937 -6.015637587
72.69539616 -24.06839255 -6.025440485
72.1794172 -24.1196765 -6.045668891
71.56173141 -24.23302561 -6.069822692
71.1611243 -24.20193907 -6.085697614
70.81476111 -24.13351549 -6.099524778
70.34573968 -24.14070429 -6.118079324
69.89289342 -24.1344742 -6.136045875
69.32911463 -24.19426576 -6.158296879
68.57724757 -24.36634188 -6.187793892
68.15132245 -24.33220174 -6.204829404
87.4147904 -12.29712682 -5.466509511
66.97726319 -24.4503342 -6.251364258
66.36063473 -24.52062754 -6.275823215
65.74707097 -24.5845612 -6.300202506
65.0418951 -24.69797761 -6.328140468
nan nan nan
63.81702624 -24.8009984 -6.377012246
63.4409959 -24.70951553 -6.392417142
nan nan nan
62.39288372 -24.68774432 -6.43472399
73.70148859 -18.01572543 -6.000347905
61.00149314 -24.84307606 -6.490409835
60.43929356 -24.83912939 -6.513177346
59.83250601 -24.85579896 -6.537705214
59.1281898 -24.92122003 -6.566038083
58.52810286 -24.9252112 -6.590398264
nan nan nan
62.61760567 -22.11316801 -6.434966918
77.37808457 -14.04419435 -5.865875365
76.62184661 -14.20485812 -5.896073027
76.29880079 -14.13552273 -5.909563693
75.69549621 -14.2080066 -5.933927782
75.24245675 -14.19955351 -5.952516455
74.73085103 -14.21755493 -5.97340838
74.29887963 -14.1920651 -5.991252594
nan nan nan
nan nan nan
nan nan nan
nan nan nan
nan nan nan
nan nan nan
nan nan nan
nan nan nan
81.60784684 -8.668940828 -5.717414735
76.92648008 -10.60366862 -5.90097065
nan nan nan
75.50963558 -10.79300987 -5.958762568
75.13716966 -10.73053741 -5.974618292
nan nan nan
nan nan nan
74.44971778 -10.34306899 -6.005580675
nan nan nan
73.57084464 -10.25689474 -6.042837195
72.65856758 -10.40778584 -6.080057729
72.71358661 -10.15002282 -6.079407289
nan nan nan
72.56777679 -9.74209497 -6.088196596
72.120581 -9.689122102 -6.107333858
71.9329577 -9.529623172 -6.116303795
71.4064815 -9.503086997 -6.138637935
71.14940323 -9.367609531 -6.150409553
nan nan nan
nan nan nan
nan nan nan
69.32820951 -9.108896716 -6.22913822
69.0479264 -8.971754981 -6.242014078
68.4254711 -8.958662745 -6.268460878
67.86341419 -8.919292847 -6.292572623
nan nan nan
nan nan nan
nan nan nan
nan nan nan
nan nan nan
nan nan nan
nan nan nan
nan nan nan
nan nan nan
nan nan nan
nan nan nan
nan nan nan
nan nan nan
nan nan nan
nan nan nan
nan nan nan
nan nan nan
nan nan nan
nan nan nan
nan nan nan
nan nan nan
nan nan nan
nan nan nan
nan nan nan
nan nan nan
nan nan nan
nan nan nan
nan nan nan
nan nan nan
nan nan nan
nan nan nan
nan nan nan
73.85989999 0.3101682425 -6.12048387
73.71172391 0.4822583382 -6.128789522
73.47155804 0.6339691205 -6.140879666
73.23177932 0.7871679084 -6.152991094
73.05576443 0.9560333446 -6.162530209
72.90952484 1.132388416 -6.170881497
nan nan nan
nan nan nan
nan nan nan
nan nan nan
nan nan nan
nan nan nan
nan nan nan
nan nan nan
nan nan nan
nan nan nan
nan nan nan
nan nan nan
nan nan nan
nan nan nan
nan nan nan
nan nan nan
72.94238167 4.645000738 -6.212378175
nan nan nan
nan nan nan
nan nan nan
nan nan nan
nan nan nan
nan nan nan
nan nan nan
71.90729985 6.136955803 -6.277847588
nan nan nan
nan nan nan
nan nan nan
nan nan nan
nan nan nan
nan nan nan
nan nan nan
71.69206603 7.758503171 -6.310452606
72.03502229 7.997323222 -6.29888671
nan nan nan
nan nan nan
nan nan nan
nan nan nan
nan nan nan
nan nan nan
nan nan nan
71.20381863 9.569364112 -6.359348659
71.09045473 9.768036198 -6.367449881
71.2220646 9.982627814 -6.365027284
nan nan nan
nan nan nan
nan nan nan
nan nan nan
105.6863505 12.54856419 -4.886919542
105.5330465 12.62719417 -4.894964777
105.4848293 12.71082524 -4.898466626
nan nan nan
nan nan nan
nan nan nan
85.6335402 15.68171772 -6.075719744
85.78074778 15.82956624 -6.071252852
86.17776149 15.96311551 -6.054117891
86.39070311 16.104403 -6.046295382
86.49443732 16.2508493 -6.044016512
86.75811825 16.38642013 -6.033599047
84.64069781 16.68058383 -6.144563059
84.84103937 16.82544074 -6.137511873
85.00198747 16.97189988 -6.132466754
85.14348294 17.11882337 -6.128416064
85.30039984 17.26358731 -6.12357516
85.42293751 17.41025413 -6.120496752
85.56585909 17.55435104 -6.116374853
85.6694539 17.70115904 -6.114276491
85.76359601 17.84822805 -6.112671712
85.92777929 17.98781468 -6.10745697
86.06756864 18.12884535 -6.103501614
86.23263157 18.26633435 -6.09823673
86.42292774 18.39999329 -6.091658862
86.68805595 18.52395847 -6.081188715
87.46435351 18.58653224 -6.044112574
87.91831097 18.68249212 -6.023729025
88.6697368 18.73853753 -5.987778461
88.87615657 18.85876111 -5.980203709
nan nan nan
90.38367407 18.94806715 -5.907659789
90.75378492 19.03781873 -5.891371583
91.04988079 19.13554126 -5.878935043
91.54381955 19.20258341 -5.856056755
91.63769462 19.32571383 -5.854207587
92.01826832 19.40468466 -5.83722675
92.51239854 19.46337385 -5.81419885
92.75498659 19.55877502 -5.804430982
92.54931601 19.72563396 -5.818420274
92.82703652 19.81361447 -5.806780605
92.69144185 19.97007809 -5.817109245
92.93527996 20.06174758 -5.807256933
92.91380428 20.19888696 -5.811544823
92.57839147 20.39315073 -5.832642176
92.65143914 20.51461158 -5.831943785
92.40591364 20.69567227 -5.848339472
nan nan nan
91.6772128 21.11011327 -5.894110904
91.6693878 21.25060999 -5.897906299
91.54952783 21.41407555 -5.907773954
90.72617597 21.72374313 -5.955727717
85.24777106 23.01704943 -6.25601339
85.3737158 23.15335933 -6.253220698
85.54885162 23.27828627 -6.247755929
85.68043553 23.4118073 -6.244655952
85.81240338 23.54453417 -6.24153622
85.94962665 23.67533703 -6.238130197
86.08236655 23.80644586 -6.234970373
86.22033631 23.93559681 -6.231524048
86.36353162 24.06274887 -6.227791568
86.51192115 24.1878371 -6.223770263
86.65096731 24.31442333 -6.220262617
86.72739898 24.45592911 -6.220210241
86.8768653 24.578594 -6.216131093
86.98315609 24.71156164 -6.214440056
102.3438209 20.85341117 -5.366326418
102.4175379 20.93703462 -5.364952809
102.6795329 20.9696301 -5.353097302
103.0473715 20.97157906 -5.335301628
103.2416637 21.01896176 -5.327148539
102.5033154 21.3265428 -5.371188766
102.3719343 21.46744082 -5.381352347
102.9608821 21.40214726 -5.351084003
102.954703 21.50619562 -5.354214614
102.905826 21.62311764 -5.359772073
102.9100498 21.72473648 -5.362357046
nan nan nan
105.272694 21.20598175 -5.234063969
105.4280849 21.25217554 -5.22786058
105.6644604 21.27190831 -5.217030394
105.8911531 21.29311161 -5.206718016
102.6677863 22.42464321 -5.393519682
102.7699204 22.49670577 -5.390649267
102.6446616 22.64326929 -5.400819703
102.4443187 22.81610612 -5.415351188
102.5523045 22.88660099 -5.412192424
107.1581033 21.41976839 -5.149526332
90.01399049 27.43337996 -6.143160696
101.9911493 23.40391948 -5.453954709
102.0255227 23.50157075 -5.455150258
101.7076206 23.72509205 -5.476841872
101.6867666 23.84408487 -5.481321764
101.7320506 23.93935774 -5.481964496
108.4047556 21.58764443 -5.094920731
101.6084217 24.20963638 -5.495838818
108.6478066 21.66757576 -5.085738175
101.7997633 24.36300483 -5.491319799
102.5409534 24.19035775 -5.450988943
nan nan nan
105.1151287 23.39875969 -5.305201482
105.1958388 23.46706988 -5.303453179
105.1701632 23.57768895 -5.308030729
102.97967 24.56636155 -5.44162925
102.999603 24.66812003 -5.443806435
102.6185523 24.9358455 -5.469994908
102.676689 25.02360111 -5.469966201
102.4085014 25.24882013 -5.489553677
110.2760946 22.01189165 -5.019303616
110.337628 22.0667968 -5.018128112
102.2937935 25.64030067 -5.507150459
102.3908305 25.71282863 -5.504883815
102.3739096 25.83532856 -5.509536894
102.5489455 25.87258629 -5.50253376
nan nan nan
109.5147393 22.93321515 -5.083975869
109.8740322 22.85457102 -5.064721055
109.7705248 22.9876717 -5.073807743
110.3188678 22.8170065 -5.042820993
110.2201937 22.94737678 -5.051613805
110.3745795 22.95831486 -5.044806259
110.4568152 23.0029046 -5.042445506
110.5211429 23.05573868 -5.041191379
110.5228318 23.13895285 -5.043837097
110.7173458 23.12725687 -5.034470113
110.9294275 23.10542118 -5.023968254
110.9091336 23.19873727 -5.027987777
nan nan nan
111.9855778 22.81591281 -4.965764112
111.9778659 22.89923375 -4.96889942
111.952802 22.99194729 -4.973153219
112.074064 23.00843764 -4.968153589
112.3452591 22.94485317 -4.953605598
112.3426865 23.02513332 -4.956436952
112.3228756 23.11500375 -4.960388651
112.2376588 23.24081909 -4.968552416
112.2056677 23.3386108 -4.97334573
112.0255113 23.51870441 -4.987699898
112.243437 23.47942204 -4.976457652
nan nan nan
112.7864401 23.33525982 -4.946881078
114.5771215 22.39431773 -4.833297936
102.5955981 29.3479606 -5.616095377
115.6107691 21.93874095 -4.770788999
115.6485222 21.98379791 -4.770664061
115.7337357 22.00084615 -4.76742884
115.8274828 22.01230477 -4.763620834
115.9168514 22.02577017 -4.760087017
116.0061409 22.03871963 -4.756545334
116.0953428 22.05114189 -4.752995816
116.1844655 22.06304822 -4.749438333
116.269258 22.07704887 -4.746155945
116.3582112 22.08793187 -4.742583051
116.4428385 22.10095019 -4.739285907
116.5316122 22.11080846 -4.735697826
116.6160856 22.12283592 -4.732385606
116.696273 22.13707496 -4.729349873
116.7805784 22.14813989 -4.726023185
116.860622 22.16146017 -4.722973489
116.9406006 22.17430692 -4.719916357
117.0246704 22.18395558 -4.716568556
117.1044939 22.19589208 -4.71349778
117.1883845 22.20458671 -4.710135832
117.2680444 22.21560167 -4.707051344
117.3682458 22.21210221 -4.702537436
117.3571657 22.28431549 -4.705701408
117.3628503 22.34534744 -4.707724249
117.3524356 22.41785607 -4.710883249
117.3832213 22.46186727 -4.711190869
117.3367277 22.56053677 -4.716910136
117.3314287 22.63067773 -4.719777464
nan nan nan
nan nan nan
120.9202727 20.21675348 -4.473476001
120.9352915 20.25421557 -4.474252647
nan nan nan
101.9338364 34.50485609 -5.834010346
117.6831163 22.84101447 -4.712625422
102.5543434 34.34202944 -5.801205964
102.5792357 34.47393802 -5.805220121
102.5888708 34.61808767 -5.810371133
102.5557142 34.79598004 -5.818663261
102.472263 35.01420766 -5.830669824
113.8672013 26.23991902 -5.006444556
102.3872913 35.39133037 -5.848946233
113.9361771 26.36761241 -5.008508693
102.5907314 35.54292424 -5.846286694
102.5198137 35.757497 -5.857694486
nan nan nan
118.8411804 22.72499324 -4.659038111
102.2524608 36.45653441 -5.896478704
102.1326397 36.71896423 -5.91188506
102.255636 36.78084797 -5.909212048
102.3214318 36.8903693 -5.910832227
102.3152994 37.06103499 -5.917896682
102.2492931 37.28387626 -5.929548502
102.2185577 37.47818168 -5.938609455
102.1662051 37.69260188 -5.949387805
102.1526477 37.87486525 -5.957287358
102.1362647 38.0608073 -5.965466292
102.0984063 38.26700521 -5.975362957
102.1101097 38.43060439 -5.981515509
102.0557283 38.65441514 -5.992835565
102.124835 38.76849704 -5.994658841
102.1759228 38.89919424 -5.997909603
102.2607041 38.99949846 -5.998562724
102.312842 39.12997964 -6.001794816
102.3472601 39.27739072 -6.006455395
102.4370482 39.37372689 -6.00679008
102.5489718 39.44920327 -6.005386444
102.6538517 39.53109432 -6.004548063
102.7770177 39.59532732 -6.002259839
102.8679161 39.69015353 -6.002551216
102.9591404 39.78467212 -6.002832264
103.036409 39.89280595 -6.004254625
103.1105342 40.00422046 -6.005954179
103.1886601 40.11192945 -6.007356119
103.2813647 40.20532323 -6.007595029
103.3250535 40.34788085 -6.011858158
103.436132 40.42306351 -6.010635188
103.5369086 40.50847062 -6.01026669
103.6414477 40.58992678 -6.009597867
103.7253918 40.69248933 -6.010649405
103.8235772 40.7804066 -6.010536218
120.7407024 23.27419367 -4.604543473
nan nan nan
104.051405 41.11468199 -6.015901106
104.1714784 41.17954412 -6.014014782
119.5305555 24.84997913 -4.718945611
119.5393442 24.91938247 -4.721587003
119.5855937 24.94837814 -4.721051405
119.5882375 25.02518057 -4.724261352
nan nan nan
109.5924498 36.32386904 -5.596038711
nan nan nan
110.4230677 35.70685136 -5.537565266
117.7031297 27.57825153 -4.906986944
117.6173809 27.7752136 -4.918827767
110.5411365 36.04252346 -5.547723869
117.674194 27.91034929 -4.922588873
117.6917345 27.99116526 -4.925471159
117.7645869 28.00731548 -4.923443818
117.7795168 28.09186051 -4.926603918
117.8205037 28.14583538 -4.927450762
117.8681019 28.19202233 -4.927715271
117.7825047 28.39981191 -4.940089476
117.8879316 28.37663173 -4.935150785
117.8891466 28.48071857 -4.939725504
117.7561425 28.7520056 -4.956696562
117.7341334 28.88807002 -4.96356643
117.7657584 28.95806192 -4.965527326
nan nan nan
117.8269479 29.10186213 -4.96972005
112.5483358 35.99353621 -5.471072327
112.6723683 35.99502209 -5.466631297
112.7627669 36.03947227 -5.465354209
112.922842 35.9922475 -5.457439043
113.061294 35.97203907 -5.451534934
113.1993977 35.95114568 -5.445624159
113.3401278 35.92554611 -5.439418069
113.4685968 35.91530404 -5.434358379
113.6293031 35.86017512 -5.42612209
113.7541292 35.8525984 -5.421337035
nan nan nan
nan nan nan
113.9183429 36.11886439 -5.427678513
114.037398 36.11777003 -5.423440157
114.1304065 36.15287757 -5.421786766
114.2491704 36.15076299 -5.417534892
114.3535145 36.16861624 -5.414715777
114.4634528 36.1777916 -5.411314173
114.5732583 36.18647379 -5.407905815
114.6829323 36.19465292 -5.404490507
114.792482 36.20235016 -5.401068714
114.9018976 36.20956414 -5.397640462
115.0111704 36.21628355 -5.39420568
115.1175667 36.22668458 -5.391051899
115.226581 36.23243884 -5.387604073
115.3327443 36.2419086 -5.384437456
115.4414903 36.24669632 -5.380976711
115.5474121 36.25522351 -5.377797189
115.655877 36.25906311 -5.374323939
115.7641865 36.26242656 -5.370844775
115.8670796 36.27377602 -5.367933361
115.9646258 36.29319192 -5.365590157
116.0595263 36.31644302 -5.363526962
nan nan nan
116.2879755 36.29768941 -5.355078196
116.3903127 36.30681031 -5.352136142
116.4900028 36.3197763 -5.349474391
116.5997464 36.31512623 -5.345659945
116.6916635 36.34015596 -5.34384604
116.7910967 36.35186425 -5.341165982
116.8904557 36.36315827 -5.338479868
116.9897301 36.37402645 -5.335787555
117.0913797 36.3801431 -5.332802927
117.19291 36.38582905 -5.329812639
117.2943243 36.39107467 -5.326816369
117.3956198 36.39589976 -5.323814609
117.496791 36.40029346 -5.32080705
117.5978439 36.40425659 -5.317793718
117.6987675 36.40778763 -5.314774751
117.7972129 36.41529854 -5.312036
117.8768821 36.45770345 -5.311576381
117.9938127 36.42909822 -5.306541433
118.0712244 36.4752414 -5.306354351
nan nan nan
nan nan nan
118.3135353 36.59428107 -5.304609215
nan nan nan
nan nan nan
124.8586076 23.95560252 -4.491012262
118.6838296 36.65633928 -5.296299384
124.9439338 23.9641115 -4.488834972
118.8622831 36.69868006 -5.292962838
118.9687124 36.68328665 -5.289009796
119.0535704 36.71256492 -5.287895575
119.144848 36.72797404 -5.285922356
119.2361029 36.74302659 -5.283943118
119.3273281 36.75772162 -5.281958048
119.4309434 36.74480707 -5.278263935
119.5281742 36.74510027 -5.275416771
119.6273165 36.74043547 -5.272280776
119.7222569 36.7444926 -5.269707096
119.8170968 36.74817216 -5.267128305
119.9178086 36.737734 -5.26369453
120.0242413 36.71311655 -5.259406573
120.1029706 36.75233704 -5.259078076
120.1876816 36.77748551 -5.25789354
120.2782208 36.78851014 -5.255854372
120.3668115 36.80379096 -5.254092266
120.4534933 36.82336379 -5.252607155
120.5345637 36.85648515 -5.251963289
120.6418056 36.82447316 -5.24736047
120.7431702 36.80591177 -5.243601199
120.838806 36.80087232 -5.240684481
120.9397295 36.78148168 -5.236917313
121.0206501 36.81290602 -5.236245906
121.1070217 36.83005259 -5.234722967
121.1934006 36.84688722 -5.233194337
121.2832855 36.854044 -5.231097124
121.3731093 36.86085902 -5.228994933
121.454304 36.89076704 -5.228292747
121.5559806 36.86406486 -5.224212922
121.6405468 36.88394298 -5.222938002
121.775108 36.76231753 -5.213237806
121.8691435 36.75313604 -5.210272429
121.9499577 36.78131466 -5.209545621
122.0373341 36.79032684 -5.207691868
122.1545968 36.80385218 -5.205292517
125.858727 25.94094803 -4.561221961
125.9023385 25.9606885 -4.561082219
125.9466534 25.98573399 -4.56119777
122.5228157 36.83055136 -5.19708428
122.594746 36.8430719 -5.195871257
122.6419117 36.8632509 -5.195685385
122.7670458 36.87626617 -5.193158274
122.8555806 36.87743815 -5.190976351
122.9440331 36.87827549 -5.188789795
123.0378886 36.8752206 -5.186280444
nan nan nan
126.8455284 24.36157626 -4.456181408
123.2997069 36.88427597 -5.180234905
123.3796111 36.91226284 -5.179691232
123.4690137 36.90632109 -5.177198494
123.5463819 36.94335469 -5.177197755
123.6369979 36.93195308 -5.174417925
123.7210063 36.94432206 -5.173019544
123.807568 36.946728 -5.171061971
123.8928131 36.95365049 -5.169376379
123.978035 36.96025672 -5.167685585
124.0632256 36.96654559 -5.165989689
124.1483892 36.97253786 -5.164289092
124.2347087 36.97336507 -5.162307451
124.3197896 36.97872986 -5.160597083
124.4048408 36.98378761 -5.15888167
124.4887177 36.99339197 -5.157436717
124.5737175 36.99783673 -5.155711314
124.6575747 37.00683255 -5.15425597
124.7414276 37.01553498 -5.152795538
124.8252795 37.02393439 -5.151329797
124.9091222 37.03203972 -5.149859031
124.9929633 37.03983184 -5.148382687
125.0767918 37.0473395 -5.146901737
125.1616153 37.04964939 -5.145141502
125.2454122 37.05654684 -5.143650212
125.3291963 37.06313961 -5.142153664
125.4129711 37.06943828 -5.14065229
125.4967298 37.07544189 -5.139145779
125.5813913 37.0762348 -5.137361447
125.6651061 37.08163657 -5.135845127
125.7496853 37.08182224 -5.134051275
125.8324863 37.09153463 -5.13279733
125.9144517 37.10588159 -5.131810169
125.9972978 37.11501472 -5.130545269
126.080161 37.12385747 -5.12927511
126.1630339 37.13240879 -5.127999585
126.2467012 37.13573419 -5.126447512
126.3295797 37.14370071 -5.125161631
126.412468 37.15137582 -5.123870584
126.4953697 37.15874993 -5.122574046
126.5775645 37.17078678 -5.121542842
126.6604982 37.17757981 -5.120235513
126.7434333 37.18409034 -5.118923202
126.8263733 37.19030877 -5.117605787
126.9093216 37.19622547 -5.116282846
126.9922683 37.20185927 -5.11495506
127.07522 37.20720096 -5.113621968
127.1581695 37.21224957 -5.112283761
127.2405479 37.22195979 -5.111208914
127.3224082 37.23634915 -5.110396935
127.4054046 37.24053608 -5.109042883
127.4878835 37.24938204 -5.107951336
127.5734015 37.22814426 -5.105248657
127.6543774 37.25131758 -5.104949927
127.7387618 37.23941435 -5.102773935
127.8185284 37.27694618 -5.103263928
nan nan nan
nan nan nan
nan nan nan
nan nan nan
nan nan nan
nan nan nan
nan nan nan
nan nan nan
nan nan nan
nan nan nan
nan nan nan
nan nan nan
nan nan nan
nan nan nan
nan nan nan
nan nan nan
nan nan nan
nan nan nan
nan nan nan
nan nan nan
nan nan nan
nan nan nan
nan nan nan
nan nan nan
nan nan nan
nan nan nan
nan nan nan
nan nan nan
nan nan nan
130.1175476 24.56719984 -4.402032034
130.157716 24.67646368 -4.407145462
130.1940319 24.57091983 -4.401113825
130.2347295 24.66991617 -4.405693416
130.2734201 24.6739223 -4.405351601
130.3130995 24.7077398 -4.40655534
130.3516016 24.7014988 -4.405690896
130.389675 24.68513852 -4.404309497
130.4278513 24.67363545 -4.403184705
nan nan nan
130.5091588 24.754982 -4.406322003
130.5482668 24.75802704 -4.405956995
130.5958498 24.91050355 -4.413272662
130.6343379 24.89330293 -4.411870234
130.6844233 25.06036637 -4.419922722
130.7176537 24.95817192 -4.414169308
nan nan nan
130.8078063 25.10209113 -4.42051825
nan nan nan
131.8996819 37.57884625 -5.056544479
131.9833082 37.57200231 -5.055159999
132.0717308 37.6195971 -5.056559915
132.1468415 37.51767687 -5.050351013
132.2321425 37.52986371 -5.049966668
132.3204992 37.57156657 -5.051091443
132.4035882 37.55828998 -5.049429252
132.4902916 37.57949102 -5.04952763
132.5777105 37.60534251 -5.049869721
132.6647802 37.62591854 -5.049951683
132.7526067 37.65113064 -5.050276281
132.840044 37.67107176 -5.050341432
132.9270457 37.68573537 -5.050147726
133.0141827 37.70007471 -5.049946279
133.1014542 37.71410986 -5.049737455
133.1882002 37.72287507 -5.049271166
133.275042 37.73133067 -5.048797889
133.3619857 37.73947748 -5.048317849
133.4497375 37.75224738 -5.048079441
133.5368886 37.75975698 -5.047585072
133.6241366 37.76695711 -5.047083702
133.7114746 37.77384679 -5.046575519
133.7989093 37.78040679 -5.046060084
133.8864306 37.78666596 -5.045538056
133.9748616 37.79752209 -5.045255864
134.0634196 37.80806288 -5.044966214
134.1512431 37.81335486 -5.044422629
134.2400258 37.82325076 -5.044118255
134.328926 37.83281988 -5.043806365
134.4179446 37.84206237 -5.043486847
134.5061626 37.84606696 -5.042914785
134.5935207 37.84484552 -5.042090983
134.6809271 37.8433078 -5.041260895
134.7664297 37.83166575 -5.039936618
134.8588411 37.8539846 -5.040313929
134.9504621 37.87105691 -5.040438289
135.0412331 37.88290458 -5.040310984
135.1321511 37.89440943 -5.040175335
135.2210915 37.89580969 -5.039546506
135.3122542 37.90664217 -5.039395348
135.4046528 37.92200635 -5.03947795
135.4938913 37.92241865 -5.038827262
135.5922158 37.96141537 -5.040099405
135.666859 37.89794277 -5.036300753
135.7701428 37.9556743 -5.038518174
135.8538834 37.93047472 -5.036636811
nan nan nan
132.9403055 25.55813538 -4.42359173
136.1253439 37.93545142 -5.035039411
nan nan nan
133.5030597 27.20318187 -4.503940378
133.5517129 27.19561338 -4.503244645
133.6029491 27.19751767 -4.503021939
136.6039263 38.02694592 -5.036668879
136.6890796 38.00369807 -5.034973185
136.7835892 38.01380578 -5.034931544
136.8768806 38.01875832 -5.034644924
136.9730524 38.03294269 -5.034822606
137.0693971 38.0467576 -5.034991083
137.1659346 38.06020583 -5.035150206
137.2612157 38.06848341 -5.035064756
137.3580906 38.08118141 -5.0352056
137.453678 38.0887145 -5.035102443
137.5508917 38.10065238 -5.035224914
137.6452883 38.10269086 -5.034870402
137.741304 38.10911294 -5.034741254
137.8374518 38.1151699 -5.034603698
137.9321848 38.11610467 -5.034224613
138.0285893 38.12141018 -5.034069976
138.1251343 38.12636185 -5.033907101
138.2234057 38.13565163 -5.033966968
138.3218317 38.14455926 -5.034017786
138.4204335 38.15307762 -5.03405911
138.5191798 38.16121244 -5.03409161
138.6147742 38.15953209 -5.03365367
138.7322788 38.21863448 -5.036198619
138.8113178 38.1691598 -5.033443412
nan nan nan
nan nan nan
nan nan nan
nan nan nan
nan nan nan
134.7166094 26.00275442 -4.437724695
nan nan nan
139.6941914 38.42453811 -5.043589683
134.8883211 26.05920757 -4.44009469
134.9242577 26.02342843 -4.438231764
134.99187 26.06626675 -4.440208437
135.0277 26.03018994 -4.438341896
135.116729 26.12326866 -4.442778054
nan nan nan
135.2174223 26.11929225 -4.442395445
135.2727313 26.12849241 -4.442757756
140.5947071 38.40106828 -5.040622644
nan nan nan
135.4374133 26.15012629 -4.443585658
135.4891723 26.14925346 -4.443479017
135.5755865 26.22573042 -4.447144663
nan nan nan
135.6820126 26.22724696 -4.44711756
135.7301308 26.21632878 -4.446543924
135.7950285 26.24149122 -4.447732828
135.8665159 26.27993665 -4.449573758
135.9191706 26.27736221 -4.449423685
135.9890449 26.31066768 -4.451025974
nan nan nan
136.0818085 26.27736578 -4.449384226
136.1719875 26.35022188 -4.452929355
nan nan nan
142.348567 38.54845429 -5.0467637
142.4243154 38.48282135 -5.04360178
142.5606481 38.5373084 -5.046299257
142.6770798 38.55110007 -5.047027781
142.7891785 38.55550639 -5.047311269
142.9037748 38.56386437 -5.047799155
143.0185832 38.57171705 -5.048275058
143.1336011 38.57908423 -5.048739167
143.2923794 38.56275208 -5.048125532
143.4102025 38.57331653 -5.048776236
143.5258649 38.578967 -5.049200448
143.6441364 38.58849391 -5.04982625
143.7626426 38.59749851 -5.050439129
143.881375 38.60596949 -5.051039315
144.0027815 38.61828566 -5.05183936
144.12691 38.63439317 -5.052837794
144.2513184 38.64994431 -5.053822124
144.3760081 38.66492919 -5.054792254
144.5009777 38.67935769 -5.05574858
144.6211638 38.68458999 -5.056270104
144.7415775 38.68927878 -5.05677764
144.854534 38.68056275 -5.056645324
144.9778874 38.68849795 -5.057339486
145.1195653 38.72579807 -5.059480725
145.2668702 38.77095897 -5.062022058
145.3807104 38.76004492 -5.061836776
145.502542 38.76138904 -5.062265127
145.6219319 38.75795136 -5.062473356
145.7414774 38.75398024 -5.062669864
