# .PCD v0.7 - Point Cloud Data file format
VERSION 0.7
FIELDS x y z intensity rgb
SIZE 4 4 4 4 4
TYPE F F F F F
COUNT 1 1 1 1 1
WIDTH 625
HEIGHT 1
VIEWPOINT 0 0 0 1 0 0 0
POINTS 625
DATA ascii
100.22664443277222 18.351787704359985 -6.252411049350077 0.054901960784313725
100.3222256271938 18.433586419447966 -6.247592335839222 0.050980392156862744
100.38862049094861 18.52012829852446 -6.24522507140772 0.03529411764705882
100.5042695094047 18.59717245995323 -6.238727428767363 0.047058823529411764
100.54180343372731 18.68829723734612 -6.238804370569439 0.03137254901960784
100.69598932793932 18.854569756381295 -6.232329767821678 0.03137254901960784
100.82720302989978 18.926237578577155 -6.224528659853442 0.043137254901960784
100.93417998593645 19.002030668461035 -6.218773781229123 0.0392156862745098
100.95840224127934 19.09434461951894 -6.220033390764958 0.027450980392156862
101.07114606160454 19.26506737011613 -6.217145922668129 0.023529411764705882
101.27738651451372 19.413966288541282 -6.206333369980026 0.03137254901960784
101.40024562474864 19.483054664899328 -6.199241334835453 0.03529411764705882
101.45040229883054 19.56806447786386 -6.198362438495168 0.03137254901960784
101.55906829081395 19.639227767240353 -6.192484898416124 0.050980392156862744
101.61457711407618 19.72233253932206 -6.191166683983446 0.043137254901960784
101.65580833596074 19.808618964431954 -6.191086505054571 0.043137254901960784
101.68281102222531 19.898241306085524 -6.19224787150323 0.043137254901960784
101.69560491881965 19.99134672698634 -6.194652582258234 0.03529411764705882
101.77638343343568 20.06742348610101 -6.191211623229939 0.023529411764705882
101.83806769632073 20.147936266859155 -6.189427314983238 0.03529411764705882
102.1652734291412 20.159391403137533 -6.1646526940322595 0.050980392156862744
102.40550250213218 20.191438160279496 -6.1473615021826715 0.03137254901960784
102.8430292349895 20.16927295376892 -6.1128853400335394 0.043137254901960784
102.99630141470524 20.220833910583558 -6.103053621895521 0.043137254901960784
103.15923225831449 20.268769043641363 -6.092362800808701 0.047058823529411764
103.28858794661184 20.324979789994565 -6.08458354740379 0.0392156862745098
103.45161675096725 20.37091967428518 -6.073849297648639 0.043137254901960784
103.60028558828938 20.419908495846453 -6.064351525682298 0.043137254901960784
103.7537823732767 20.46655417306751 -6.054414072077741 0.0392156862745098
103.91209280857807 20.510814384962742 -6.044033259889643 0.0392156862745098
104.07042462984067 20.55405790688803 -6.033632746288821 0.0392156862745098
104.18580959075489 20.60917252803194 -6.026996967812291 0.0392156862745098
104.3108306355359 20.660678344757798 -6.019502782448461 0.0392156862745098
104.4359217334908 20.71139643216161 -6.01199198178968 0.043137254901960784
104.56107434052831 20.761315540828466 -6.004462456530861 0.0392156862745098
104.69104516474553 20.808960830140737 -5.996493852974085 0.043137254901960784
104.8210604847117 20.855784536767114 -5.988507304541578 0.0392156862745098
104.95586551697392 20.90024965592478 -5.980080321921845 0.0392156862745098
105.09542481699451 20.942320922329472 -5.971212694230729 0.043137254901960784
105.23027765792679 20.985076518236585 -5.962749043002036 0.047058823529411764
105.36515082511386 21.026966777527974 -5.954265888315808 0.043137254901960784
105.50004018470283 21.06802135985392 -5.945765916508904 0.047058823529411764
105.62551647715917 21.111454109310387 -5.938096130979784 0.050980392156862744
105.7557214799489 21.152459152650025 -5.9299843707985 0.050980392156862744
105.87654764380997 21.195958244852637 -5.92270372109071 0.050980392156862744
105.9880234885958 21.242036133008526 -5.916256537412581 0.058823529411764705
106.1042310061435 21.285737208774037 -5.909368405057671 0.054901960784313725
106.21111254570717 21.332131550304872 -5.903315781624756 0.054901960784313725
106.3554808305679 21.364144053261903 -5.893845490087821 0.058823529411764705
106.48578938250789 21.400449032979893 -5.885633333064158 0.06666666666666667
106.62075558410876 21.434185060130325 -5.876978295309483 0.10196078431372549
106.74171054840447 21.472371808807416 -5.869583993875322 0.09803921568627451
106.9138682532126 21.490230771054648 -5.857484263355789 0.09019607843137255
107.01153588576547 21.535709851223444 -5.852188579970358 0.07450980392156863
107.22991721760589 21.533493355906785 -5.8357813941021135 0.09019607843137255
107.3553516307576 21.566420903287217 -5.827890302302075 0.054901960784313725
107.53166726128063 21.578289029118864 -5.815282208928801 0.054901960784313725
107.67545799983438 21.602032938859015 -5.805646670675932 0.06274509803921569
107.92992975515882 21.57983738953434 -5.785724011910971 0.10588235294117647
108.18859550068831 21.55405878064552 -5.7653440881025455 0.12156862745098039
108.44683255356198 21.52658448089442 -5.74493492209052 0.14509803921568626
108.58518483922666 21.54744713662481 -5.735639334576179 0.13725490196078433
108.65920817872636 21.594625966251925 -5.73232999803746 0.16470588235294117
108.76539416662155 21.627687378059324 -5.7260073878151365 0.16470588235294117
108.81211719752073 21.685746833748876 -5.725251333831476 0.13725490196078433
108.86358933255852 21.74159340764232 -5.7240595184022744 0.14509803921568626
108.91976658310585 21.795180585040484 -5.722429621338286 0.07058823529411765
109.03984396758862 21.820180459270322 -5.714771130607731 0.058823529411764705
109.13258727803475 21.856661948003914 -5.709679067344931 0.054901960784313725
109.44320919922293 21.79406165120767 -5.683915444940598 0.16470588235294117
109.52205559036778 21.834898822160433 -5.68008240802359 0.12941176470588234
109.65525521731723 21.850265268881255 -5.6710664965498525 0.07058823529411765
109.76576207086178 21.875309317597672 -5.6641914642899005 0.08235294117647059
109.91680106268593 21.88064215661342 -5.653420972157441 0.0784313725490196
110.18920904256089 21.827455488149596 -5.63098242222286 0.08627450980392157
110.2497845174207 21.873409726077213 -5.628806029105713 0.1411764705882353
110.76095747717463 21.774787601028144 -5.5868304842825065 0.11372549019607843
110.7988232992821 21.829387349900554 -5.586772517083618 0.09019607843137255
110.89935803121566 21.8528745719452 -5.580652286314063 0.1411764705882353
110.97756424027132 21.886898225323204 -5.576684541746266 0.13333333333333333
111.0157629348551 21.940636111062496 -5.576604464498001 0.13725490196078433
111.11631494098081 21.962631622308002 -5.570452603141975 0.13725490196078433
111.14144757370491 22.022649041351073 -5.571657569848412 0.16078431372549018
111.15352397965874 22.089452128145453 -5.574159077989742 0.1568627450980392
111.201207122228 22.13785378987422 -5.573185535173886 0.1411764705882353
111.8009801120663 22.10925012571566 -5.5288009200789165 0.0392156862745098
111.74791914700458 22.209820094909517 -5.537776586018889 0.09803921568627451
111.78271176362986 22.262961117606068 -5.5380540677850965 0.07058823529411765
112.079211786162 22.171334002888702 -5.512210565951877 0.0392156862745098
112.00074207972452 22.286361605251045 -5.523787416403729 0.06666666666666667
111.96197019169064 22.38006669103107 -5.531446413286252 0.07058823529411765
112.2269798030087 22.302227384927004 -5.5086001869175085 0.10588235294117647
112.45665741372076 22.24241420143234 -5.489216004143141 0.043137254901960784
111.32911427901429 23.038819769033644 -5.610972126038305 0.047058823529411764
111.50858576214 23.010259073518032 -5.596828310417226 0.0784313725490196
111.70481724553281 22.97043295958548 -5.580919171047331 0.08235294117647059
111.5152971658766 23.15853346148078 -5.604315630241968 0.058823529411764705
111.69001332116474 23.1303574609851 -5.590570221321212 0.06666666666666667
112.27355759661883 22.85374543713816 -5.534826679775431 0.11372549019607843
112.30622550379981 22.907448849903044 -5.535466912404267 0.08235294117647059
113.47335329304781 22.333074759447495 -5.422896226280125 0.058823529411764705
113.51412102617512 22.44524175935043 -5.426241235164167 0.054901960784313725
112.59860606247435 23.094256388936913 -5.52543910634944 0.10588235294117647
112.44318229052936 23.267410672706752 -5.545775905398141 0.08235294117647059
112.44379241418187 23.342073523998042 -5.549890841021342 0.0784313725490196
112.53667466219983 23.3572527635355 -5.5443496936495915 0.054901960784313725
112.52940391553767 23.43726507950892 -5.5493343600922795 0.07058823529411765
112.5225026949248 23.517450447240833 -5.554317132387871 0.054901960784313725
112.57824622753607 23.556512537903508 -5.552707361883318 0.0784313725490196
113.01636456554138 23.41408368061245 -5.514734777519975 0.06274509803921569
113.0633545009958 23.45679777006489 -5.513971107278546 0.09019607843137255
112.99121152546316 23.580813383640557 -5.525961347966139 0.07450980392156863
113.05102982751424 23.615054110255358 -5.523870055156524 0.11764705882352941
113.03314496744443 23.702942217308298 -5.530136618802942 0.054901960784313725
113.41813526336355 23.58408664544791 -5.497286656628886 0.050980392156862744
115.6200332216007 22.160001449178395 -5.266420706658223 0.06666666666666667
115.64620210851845 22.204920185565015 -5.267292717968608 0.16862745098039217
115.71285318708665 22.220517127904813 -5.263749192662372 0.16078431372549018
115.8076132163657 22.21518822635678 -5.2571095099187675 0.1568627450980392
115.87411509789433 22.22997676334184 -5.2535511173390175 0.1568627450980392
115.94857029965155 22.238466923883514 -5.249102552821171 0.1568627450980392
116.01895328047257 22.249527498159768 -5.245088433202045 0.16078431372549018
116.08926878824626 22.260205062838374 -5.2410671689351345 0.1803921568627451
116.15950831031783 22.27048832435439 -5.237038750015834 0.16862745098039217
116.22968887499077 22.280399865632933 -5.233003396386733 0.17254901960784313
116.29584691421007 22.292959472089755 -5.229403276518456 0.16862745098039217
116.36588461411624 22.30210387725098 -5.2253539287509465 0.1764705882352941
116.43584711556913 22.31088437639582 -5.22129805381925 0.1764705882352941
116.50181956548136 22.322347788734227 -5.2176776592414535 0.17254901960784313
116.5716388044449 22.33037119141738 -5.213608007269399 0.1803921568627451
116.63748125410136 22.3411197522615 -5.2099745254988505 0.16470588235294117
116.70326335842837 22.35150649343412 -5.2063343380195235 0.16078431372549018
116.76898234156428 22.361551216067188 -5.202687902833463 0.1568627450980392
116.83077562030346 22.374388845636574 -5.199478297676679 0.15294117647058825
116.89637430080974 22.38375036783087 -5.195819195692626 0.1568627450980392
116.961906697731 22.392749231610964 -5.1921536593510105 0.14901960784313725
117.02736804880118 22.401404968338994 -5.188481770593064 0.16470588235294117
117.09275974644204 22.409707671141856 -5.184803600317835 0.16862745098039217
117.15807743209801 22.417666823316537 -5.181119413235261 0.1568627450980392
117.22332249070593 22.425272528501836 -5.177428780410942 0.1568627450980392
117.29227454063081 22.429297441074155 -5.17328802284979 0.16078431372549018
117.35735315454373 22.436203368951105 -5.169585065569147 0.16862745098039217
117.42235379713571 22.442765187738857 -5.165876239059741 0.16078431372549018
117.46852806000595 22.465362752324637 -5.164382809978463 0.16470588235294117
117.39139107410072 22.59636772383481 -5.177552345752918 0.8313725490196078
117.41565360185467 22.638800379801495 -5.178720026429577 1.0
117.4140857313596 22.704386994893444 -5.182996402775406 0.7725490196078432
117.43136530869168 22.753456243101134 -5.185046737247406 0.16470588235294117
113.86446515318946 26.225731631358954 -5.63045002031437 0.11372549019607843
114.09170257772311 26.10477967788909 -5.608540154793783 0.08235294117647059
117.95006204091206 22.66260677296141 -5.146952366904122 0.047058823529411764
114.09298970590038 26.642354125038153 -5.643453384871186 0.03529411764705882
114.14959552441414 26.679281376169826 -5.642424016984857 0.058823529411764705
114.17068648917234 26.750791325329267 -5.6458468422480435 0.058823529411764705
118.23007316838385 22.909395333626406 -5.146033793078578 0.0392156862745098
114.18821758680377 27.107605666866352 -5.668414523349413 0.13333333333333333
114.24272347035 27.147511594587193 -5.667799352166739 0.06666666666666667
114.26596855217562 27.219213071183326 -5.6711939479975895 0.047058823529411764
121.00008357935991 20.44446238683019 -4.8154853220657605 0.07058823529411765
121.04148320663666 20.449722897911126 -4.8133795731908995 0.09019607843137255
114.41809808579656 27.54521421132181 -5.684073681289938 0.08627450980392157
114.46713652094024 27.591404264080467 -5.684310756828891 0.08235294117647059
114.48915396892622 27.666560311481064 -5.68811549496764 0.09411764705882353
114.55215439741455 27.697891643225937 -5.686553576154553 0.06274509803921569
114.55788606445265 27.79125746562645 -5.69258268889525 0.07450980392156863
114.57083187106517 27.877403382271552 -5.697711717704561 0.10588235294117647
114.60094265468271 27.945190371773737 -5.700603070358196 0.06666666666666667
114.64470863868327 27.99814623835022 -5.701699602891868 0.050980392156862744
114.61231772877618 28.136324126542505 -5.713072303147791 0.09019607843137255
114.65349507627681 28.193007761481738 -5.7146061045975545 0.06274509803921569
111.59926515399887 32.413196222347146 -6.181791370414635 0.043137254901960784
111.68142778471613 32.45020473020152 -6.179742791392198 0.03529411764705882
111.8244807851139 32.41441539509847 -6.1691853736171405 0.03137254901960784
111.8523016192953 32.51555550516049 -6.174727099169301 0.0392156862745098
111.94095896238522 32.54384982462168 -6.171759784143115 0.0392156862745098
112.0391138853538 32.56020457526584 -6.167440826815157 0.03529411764705882
112.10885116590634 32.61083389367286 -6.167142196984377 0.027450980392156862
115.32626837792643 28.77643036073885 -5.717439549065689 0.07450980392156863
115.35775343200608 28.846613929113474 -5.7206798306593605 0.10980392156862745
115.39578926809293 28.908979637086723 -5.723017386470354 0.07450980392156863
115.42483082539736 28.982971957140826 -5.726693466358581 0.06274509803921569
115.73398119455118 28.921586053057155 -5.705446908592909 0.06274509803921569
116.01337250251174 28.89113649148465 -5.688170560132609 0.06274509803921569
116.00714492753593 29.01128054699366 -5.697176672544171 0.08627450980392157
115.95685574816807 29.19147254890624 -5.712894050418486 0.0392156862745098
117.64547209673748 27.231966868677006 -5.481008291747266 0.054901960784313725
117.6699612719417 27.29912111089124 -5.484607731766098 0.06274509803921569
117.83596214606966 27.271461573744688 -5.47387765117045 0.08235294117647059
117.86381287224114 27.334128377073277 -5.477013271890176 0.050980392156862744
119.51128273151707 25.10190247601574 -5.227555793256927 0.047058823529411764
119.5774425731102 25.09360498770028 -5.223517004479807 0.11372549019607843
119.63207441387536 25.101335948704527 -5.221265161856341 0.08627450980392157
119.6696900757053 25.133436054079556 -5.221696273962297 0.07450980392156863
117.9984047827398 27.767203169759313 -5.501985664912648 0.054901960784313725
118.0426130246075 27.809146347621983 -5.502844969135081 0.0784313725490196
118.08699555274698 27.85096259691595 -5.503697993714512 0.07450980392156863
117.98547653877114 28.112459733819264 -5.528278568031223 0.10196078431372549
117.90485035849078 28.458930078564553 -5.558164609831304 0.058823529411764705
117.9380619019747 28.522178265530997 -5.5612321805106495 0.07450980392156863
118.10648483396803 28.37609415020166 -5.541908242578117 0.10588235294117647
118.06364240830571 28.673787797143973 -5.566371390833288 0.14509803921568626
117.8989775473326 29.052783400672496 -5.602989521202791 0.09019607843137255
117.92422136939301 29.133276909226176 -5.60781651555752 0.11372549019607843
118.00764059659643 29.120664621426172 -5.60278991489366 0.12941176470588234
118.0517102106737 29.171286030588377 -5.604471017660445 0.058823529411764705
115.67270062799392 33.98693478799846 -6.0846045439742085 0.043137254901960784
115.83584037008852 34.035784085459476 -6.0806350538468585 0.06666666666666667
115.94742413279691 34.17428482582202 -6.086027279812269 0.043137254901960784
116.00983754852342 34.232480158264124 -6.087593974519098 0.03137254901960784
116.09437730075317 34.251357859339265 -6.085128492811567 0.0392156862745098
116.14752502822117 34.326535453336085 -6.0884675152486505 0.03529411764705882
116.21784680567413 34.37103344491024 -6.088670398769644 0.043137254901960784
116.30978953351365 34.37595102424113 -6.084842147086313 0.043137254901960784
116.39215602761014 34.397999036124425 -6.082794989972729 0.03529411764705882
116.47453427359007 34.41972561891402 -6.080741897291432 0.043137254901960784
116.55459274287527 34.44553074290162 -6.07912742378771 0.03529411764705882
116.63236829787387 34.475439730757856 -6.077953550678496 0.043137254901960784
116.71021815269947 34.50505631261744 -6.076771415073618 0.03529411764705882
116.78585163195459 34.53880629575371 -6.0760295046572 0.0392156862745098
116.86158100762866 34.57229716989856 -6.075280708937791 0.0392156862745098
116.93741737497189 34.60550020698168 -6.0745242575915155 0.0392156862745098
117.0111030950459 34.6428862830846 -6.074207090756856 0.03529411764705882
117.1116727116671 34.62656242137184 -6.06852650315971 0.03529411764705882
117.17879297272535 34.6767239618552 -6.069533650025221 0.03529411764705882
117.26591413699865 34.686451561475714 -6.066517971778833 0.03529411764705882
122.66027664276388 23.809077941402826 -4.978562483610435 0.0392156862745098
122.68967561555225 23.839948554277516 -4.97972929421169 0.03137254901960784
122.73858730990464 23.830316667701993 -4.976878548066463 0.0392156862745098
122.78096614763564 23.833969589528486 -4.975362839499774 0.03137254901960784
122.82754837743464 23.82843504432433 -4.972952553421943 0.047058823529411764
122.87192884376587 23.82721769309215 -4.970985238731856 0.027450980392156862
122.9099770598324 23.839373901575772 -4.970351824099197 0.047058823529411764
122.94597995863599 23.85591975455251 -4.970160661835582 0.027450980392156862
122.98204149907856 23.872342602847592 -4.969966034536796 0.043137254901960784
123.02019811263463 23.88410011868617 -4.969322711874333 0.027450980392156862
123.05838148490545 23.89570996267549 -4.96867578281201 0.043137254901960784
123.1006054625704 23.898069096333078 -4.96713518380644 0.027450980392156862
123.14478094134832 23.895692253076206 -4.965146553683937 0.043137254901960784
123.18493328843888 23.902275806778075 -4.964045126276719 0.027450980392156862
123.22703475850335 23.904133145041797 -4.962495908656563 0.0392156862745098
123.27103960570193 23.90123765344454 -4.9604989261003976 0.03137254901960784
123.31497041482977 23.898150042693906 -4.958499011823105 0.03529411764705882
123.36073528651394 23.890299865806206 -4.956052165817894 0.03137254901960784
123.39122464596049 23.919082431762696 -4.957158834810449 0.027450980392156862
123.43502264468879 23.91550167858201 -4.955150438112968 0.027450980392156862
118.90042284574454 35.25398984585112 -6.044399184220808 0.03529411764705882
123.50390659402699 23.954056085698497 -4.955568360390835 0.03137254901960784
119.07255122713487 35.2638326609583 -6.038516433528021 0.043137254901960784
123.60943364175515 23.89940319261248 -4.947091607053316 0.0392156862745098
119.22819580403154 35.31412895687717 -6.03660425113616 0.043137254901960784
123.67119667830583 23.955392546242162 -4.9492598600755535 0.03529411764705882
119.37528666904666 35.386598337015414 -6.036884009037432 0.03529411764705882
123.75805179572241 23.945744424364822 -4.945202065680299 0.043137254901960784
119.53511679656347 35.42539278069678 -6.034029042941472 0.03529411764705882
123.82739794046624 23.982132643477627 -4.945567509965535 0.0392156862745098
123.87410224905994 23.967395323503453 -4.942642447440797 0.13333333333333333
123.89200666122291 24.03212853750411 -4.947247795750496 0.047058823529411764
123.97695415144939 24.025354881457236 -4.943598326388888 0.03137254901960784
119.9990291566318 35.58182443251996 -6.0297337351870635 0.03529411764705882
124.05514462274846 24.036733588418326 -4.941708926438354 0.03529411764705882
120.16609227936408 35.59721301507694 -6.025001786875109 0.03529411764705882
124.13172412966323 24.0522701811434 -4.940250400444073 0.0392156862745098
120.3377065552938 35.59716067366526 -6.018918631485343 0.0392156862745098
124.20213299781048 24.086162651372533 -4.940547342996052 0.0392156862745098
120.48128547701569 35.681070432287925 -6.020768005721315 0.03529411764705882
124.28804632022081 24.07216231211327 -4.936412121042588 0.0392156862745098
120.63469866042462 35.73555393390327 -6.0199356175498195 0.03529411764705882
124.35872153174734 24.10501197345264 -4.936683144031434 0.03529411764705882
120.78999559191864 35.78422181405272 -6.018633607064805 0.0392156862745098
124.43695999203483 24.113570675098714 -4.934733718417295 0.03529411764705882
120.96718429025015 35.76027827507508 -6.010687098849957 0.0392156862745098
124.51089254947514 24.135878427161234 -4.934095745648937 0.03529411764705882
121.10439596067282 35.86874053933803 -6.015064819121683 0.03529411764705882
124.59607885176703 24.11939342384599 -4.929919156120184 0.043137254901960784
121.25101689190495 35.94764620329557 -6.016763399716915 0.03529411764705882
124.67275742483514 24.130996585210934 -4.928376323291307 0.0392156862745098
121.39975307699417 36.02079905082387 -6.017990212094187 0.03137254901960784
124.74284529237109 24.166068235417026 -4.929022278277835 0.0392156862745098
121.56484087897762 36.03527958827305 -6.0139069594130365 0.050980392156862744
124.81585216736369 24.19104513680694 -4.928773508135426 0.03137254901960784
121.70950927882528 36.125609735318484 -6.0168333642494165 0.03137254901960784
124.89783216531788 24.18177769014776 -4.925435236148332 0.0392156862745098
121.88727524437523 36.089569364826815 -6.008304698942554 0.0392156862745098
124.97466873839524 24.191202218938024 -4.923844318897317 0.0392156862745098
122.0486178663237 36.11498031147405 -6.005464723892832 0.047058823529411764
125.04913068996117 24.20974803411006 -4.923119301934569 0.03137254901960784
122.19483886118296 36.202186926165375 -6.008302188508964 0.050980392156862744
125.12141823684613 24.23746345017581 -4.923258203152722 0.03529411764705882
122.35108229351096 36.24966058404028 -6.007599101500055 0.043137254901960784
125.19396441384457 24.264690225291275 -4.923383054954644 0.03529411764705882
122.50442104892257 36.31062580556923 -6.008181569305248 0.043137254901960784
122.59052151996967 36.29939306760206 -6.004740362507097 0.043137254901960784
122.66795080843248 36.326760577195536 -6.0047956507892835 0.043137254901960784
125.35346304791506 24.254380484165075 -4.917904219683401 0.0392156862745098
122.83248263438172 36.33686504532436 -6.000947797668076 0.043137254901960784
122.91216972403612 36.353661311462794 -6.000107740992367 0.0392156862745098
122.99291519763318 36.365293280967556 -5.998824119542002 0.043137254901960784
125.5013948390552 24.29542687080518 -4.917190826922137 0.03529411764705882
125.53896892082174 24.30292573111611 -4.916785870828301 0.0392156862745098
125.58035958216394 24.290728503315123 -4.914632311886446 0.0392156862745098
125.6114059601044 24.332209473994773 -4.9172748230012076 0.0392156862745098
125.64819427770328 24.34422442438698 -4.917295917010804 0.03529411764705882
125.68504400966653 24.356106666359466 -4.917313200353356 0.0392156862745098
125.72370733164726 24.358061936750673 -4.916456140535027 0.03529411764705882
125.76322274811153 24.354975373811904 -4.915160880484099 0.0392156862745098
125.8026917482553 24.351740951384837 -4.913863305933235 0.0392156862745098
125.84376906539381 24.338540635105932 -4.911693343470808 0.047058823529411764
125.87663183131453 24.3743378645086 -4.913869814456863 0.03529411764705882
125.91368647098231 24.385441244800482 -4.913867749282512 0.0392156862745098
125.94847048251336 24.411185291791583 -4.915165410605126 0.03529411764705882
125.98796236578026 24.407277685998874 -4.913853235749553 0.03529411764705882
126.03185278122149 24.373674973710653 -4.9099350431711635 0.0392156862745098
126.06318260375166 24.423671330567544 -4.913390908058365 0.03529411764705882
126.10826762191951 24.37990327241215 -4.90860242823815 0.043137254901960784
125.8799872793972 26.289517334458328 -5.075425587263127 0.043137254901960784
125.9373019603854 26.201911887111912 -5.066658477358277 0.06666666666666667
125.97957224442095 26.222697944824844 -5.0674204564865 0.10588235294117647
126.0175042990222 26.277925090377348 -5.071206768618081 0.03137254901960784
126.01455487791787 27.447133917490326 -5.17023374291073 0.043137254901960784
126.06712205054129 27.41819527514864 -5.166602913439327 0.0392156862745098
125.8873828360958 29.47331518273367 -5.344698965996967 0.0392156862745098
126.48716143481745 24.432713410452358 -4.904358526849625 0.03137254901960784
126.01218026591391 29.356594701719743 -5.332074659842573 0.047058823529411764
126.5582758572384 24.490259358134715 -4.907696706904158 0.03137254901960784
125.41515797738698 36.64621682603637 -5.963030831331524 0.047058823529411764
126.63803746488041 24.46302052176848 -4.903694495318739 0.03529411764705882
125.57623835083169 36.666453046192494 -5.961364380471775 0.054901960784313725
126.70489259080561 24.579140322815366 -4.91215969009547 0.03137254901960784
125.74202931023105 36.63095781083144 -5.954942140901282 0.054901960784313725
125.82034901239298 36.66739580179476 -5.956451280332525 0.043137254901960784
125.90192813283052 36.66382724489829 -5.954516389298407 0.047058823529411764
126.90670706073233 24.46507078379583 -4.898437122573445 0.03137254901960784
127.67098847619945 24.501570576006177 -4.888398415946733 0.08627450980392157
127.74714571757684 24.451475921908184 -4.883011583126899 0.10196078431372549
127.92233621522281 36.407286686942136 -5.898112065594688 0.043137254901960784
128.0026783976191 36.436204927390726 -5.899432772284905 0.047058823529411764
127.86365747271714 24.569609174542716 -4.891414138464706 0.12156862745098039
128.1670408196679 36.632660012841306 -5.913874349201846 0.050980392156862744
127.94283929338418 24.652647612035604 -4.897402583637714 0.047058823529411764
128.3302733935886 36.69347186323754 -5.916860284836023 0.050980392156862744
128.41213640861793 36.720948061960556 -5.918127890076212 0.054901960784313725
128.49491644263853 36.768058394921496 -5.921071110396423 0.050980392156862744
128.5849747428381 36.78468682869365 -5.921349643066494 0.054901960784313725
128.69098898996432 36.79031585013278 -5.920519699754754 0.050980392156862744
128.78801379029724 36.8607421935337 -5.925336494698785 0.050980392156862744
128.24302251627722 24.820801727176573 -4.907938056852618 0.03529411764705882
128.9474270250822 36.86263561421599 -5.92362735060958 0.0392156862745098
128.32033623469192 24.791649575883376 -4.904570775949234 0.03137254901960784
128.36395858367194 24.85892317877603 -4.90980244960764 0.03137254901960784
129.19377867666492 36.87797322902804 -5.922177491878971 0.043137254901960784
128.43930224945723 24.829080389849338 -4.9064500450808275 0.0392156862745098
129.35248623912332 36.80723360094908 -5.914480892970424 0.054901960784313725
128.52464515900385 24.882906209001057 -4.9101355321319415 0.03529411764705882
129.52137462253688 36.87449144606198 -5.918475017621191 0.0392156862745098
128.60550113409997 24.896515712686703 -4.910487976799466 0.0392156862745098
129.68611025758636 36.88095399839903 -5.917421477334338 0.03529411764705882
128.68614073017858 24.904590045173897 -4.910408146179077 0.03529411764705882
129.81564421250957 36.85948834696817 -5.91439208290649 0.0392156862745098
128.76001762026408 24.902754298932045 -4.909582555681034 0.03529411764705882
130.01561553928536 36.88544132930322 -5.914816327469129 0.03529411764705882
130.09716734478647 36.877159763257374 -5.913420939588045 0.03137254901960784
130.17815812142362 36.863647958014226 -5.91160485044367 0.043137254901960784
130.2623943975031 36.87956227420769 -5.912274654412003 0.0392156862745098
130.34449632513258 36.875378716907505 -5.911276319379137 0.03137254901960784
130.42366340560588 36.84615644334097 -5.908199816667018 0.043137254901960784
129.05846742047066 24.995655632964063 -4.915049288523029 0.027450980392156862
130.5845899588051 36.81164250286925 -5.904105802313358 0.047058823529411764
129.1441920602411 25.030153625048747 -4.917364660008487 0.03529411764705882
130.74910677461833 36.805644013319444 -5.902474366503055 0.043137254901960784
129.2277726964138 25.044269708194513 -4.918006263643167 0.027450980392156862
130.9984589661635 36.811747144259435 -5.901422578809356 0.0392156862745098
131.08264837929934 36.819757461683785 -5.901607750626118 0.03529411764705882
131.16767775388618 36.832391108321396 -5.902195682603086 0.0392156862745098
131.25055577655823 36.829944639282935 -5.901542364752233 0.03529411764705882
131.3319058785376 36.81735423971697 -5.900059379009962 0.03529411764705882
131.41321423798865 36.80448539769705 -5.898571162477909 0.03529411764705882
131.49609615109776 36.801161187863045 -5.897898326422007 0.03529411764705882
131.57403378151594 36.768061186167834 -5.894757682287944 0.043137254901960784
131.65770206098816 36.7690801519696 -5.894484517771935 0.03137254901960784
131.7474618244642 36.80415774235726 -5.897071160058355 0.03529411764705882
131.84455801895183 36.87812558256304 -5.902919685711371 0.03529411764705882
129.7778564254692 25.12350457998603 -4.9219716695657665 0.03137254901960784
132.02033602784084 36.91709901648524 -5.905577582685747 0.043137254901960784
129.85684458085828 25.09872483755406 -4.919629188803386 0.03529411764705882
132.17314985248416 36.83245042302267 -5.897996830764433 0.043137254901960784
129.95489818247643 25.171171489813805 -4.925431585731236 0.08235294117647059
132.42504130366262 36.823241981449485 -5.896585003227848 0.047058823529411764
132.5205934960858 36.874852710153306 -5.9007090359369005 0.023529411764705882
132.58968873197077 36.79932949673163 -5.894254758791877 0.043137254901960784
132.68248337168745 36.835653836596315 -5.897141280963789 0.027450980392156862
132.75957164358903 36.79860830383778 -5.893931378338318 0.06274509803921569
132.84189126869117 36.785611648369326 -5.892744436606494 0.027450980392156862
132.924177072931 36.77233766316419 -5.8915521688611046 0.027450980392156862
133.00755240246417 36.76362108382749 -5.890758538025088 0.03529411764705882
133.09093472760264 36.75460259834973 -5.8899594534293485 0.027450980392156862
133.17431371860172 36.74529089753759 -5.889153251867866 0.03529411764705882
133.2576973120973 36.73568707308453 -5.888340837783758 0.027450980392156862
133.3398912646619 36.72093633527436 -5.887118888170074 0.03137254901960784
133.42325417710938 36.710723851424945 -5.8862949835036655 0.0392156862745098
133.50661771625053 36.700218708599785 -5.885463914259625 0.03529411764705882
133.58997399035883 36.68941975203397 -5.884627774995527 0.03137254901960784
133.67458158465493 36.683140377861655 -5.8841860540069995 0.0392156862745098
133.75921736665222 36.676551978775464 -5.883738412198271 0.03137254901960784
133.84516665719414 36.67447170633034 -5.883684016484704 0.03529411764705882
133.93117760775476 36.672066919618814 -5.883622872956737 0.047058823529411764
134.0198870541202 36.67896095928547 -5.884355094653486 0.0392156862745098
134.10738566745883 36.68071520436783 -5.884678247881137 0.027450980392156862
134.19361621045505 36.67734180606662 -5.884593445305233 0.0392156862745098
134.28676017930448 36.697607444093755 -5.886497795674433 0.03137254901960784
134.36901988098361 36.6792113628619 -5.885198196901676 0.0392156862745098
134.45122835074423 36.66052538760005 -5.883894268937713 0.0392156862745098
132.76029385420722 30.684663475225 -5.385708801025132 0.043137254901960784
132.79281911743416 30.57615110111037 -5.37687361721128 0.10980392156862745
132.8071866130925 30.410418659846165 -5.363275680378273 0.043137254901960784
132.88963861059207 30.468604274851806 -5.36837237339889 0.058823529411764705
132.8921769067752 30.26955187530107 -5.352016085507674 0.06666666666666667
132.92048374183094 30.156214240794256 -5.342822485857404 0.03529411764705882
132.98458198287142 30.15679889267178 -5.3431523505242495 0.054901960784313725
133.11489640155213 30.36099877878808 -5.360501412487294 0.043137254901960784
133.16429569698613 30.31349641006365 -5.356847017162008 0.0392156862745098
133.24328322324507 30.355741085181748 -5.360703019840693 0.023529411764705882
133.3798037981874 30.56771337392385 -5.378761818993869 0.03529411764705882
133.40715958836688 30.45332345836502 -5.369560330684905 0.06666666666666667
133.49700489264467 30.522782446365007 -5.375742718512204 0.06666666666666667
133.56612148016885 30.53060923944399 -5.376787955381393 0.058823529411764705
133.5907058117393 30.411213659201366 -5.367203589478462 0.06666666666666667
133.6612985676459 30.423339183691304 -5.368637233560696 0.050980392156862744
133.5627853739907 29.61117782247109 -5.301946005488402 0.058823529411764705
133.62582982618895 29.609231910705326 -5.302238430560957 0.043137254901960784
133.93949204742614 30.274352041302805 -5.358464069663856 0.12156862745098039
134.02797414162933 30.331620652902117 -5.363771284649881 0.07058823529411765
133.8371647261155 29.49206883020952 -5.29437395754848 0.15294117647058825
134.0891095036239 29.97177260329221 -5.335173194753137 0.050980392156862744
134.26664028161397 30.08399677387323 -5.345730494769465 0.023529411764705882
136.81708540874337 36.23661194014729 -5.863496825169852 0.03137254901960784
136.9076280084507 36.232294961090005 -5.863965818835418 0.027450980392156862
137.0851060349835 36.213396610914565 -5.864103741530786 0.0392156862745098
137.17198778760383 36.19883798701141 -5.863773952712293 0.03529411764705882
133.54924059538163 27.436583534302173 -5.126466436261941 0.10980392156862745
133.59185573245347 27.40224991069247 -5.12414840079479 0.16078431372549018
133.65210676612827 27.408962645030265 -5.12530296773859 0.16078431372549018
137.87152644303328 36.07953155329423 -5.8616450239512945 0.03529411764705882
137.9585063053558 36.0619681724982 -5.861249573111532 0.0392156862745098
138.05176732110635 36.05766219662488 -5.861998197150637 0.03529411764705882
138.13669525767565 36.03490145023758 -5.861205062247972 0.027450980392156862
138.23431337000417 36.03889562254014 -5.8627012113161 0.03137254901960784
138.3235447439161 36.024457750519865 -5.8626578832610585 0.043137254901960784
138.4085039385896 36.00068174710684 -5.86184292858215 0.03529411764705882
138.4934170553453 35.97658628705555 -5.861022945805995 0.03137254901960784
138.58047552934553 35.95666150084119 -5.860576655469192 0.0392156862745098
138.66973584059662 35.94086479806919 -5.860504316751786 0.03529411764705882
138.75901363524775 35.92472730336434 -5.860424549088808 0.03137254901960784
138.84831168916057 35.90822921559471 -5.860336894478211 0.03137254901960784
138.93987514164215 35.89583787597283 -5.860620790638685 0.0392156862745098
139.0314899475638 35.883080215409954 -5.860896213761336 0.043137254901960784
139.1208757096476 35.86552432226765 -5.860784999220748 0.043137254901960784
139.21256212827106 35.852039747698974 -5.8610440623579585 0.03137254901960784
139.30430980241712 35.838190243085876 -5.86129453342762 0.027450980392156862
139.3914420749679 35.81514618811895 -5.860782537511007 0.03137254901960784
139.46920185581138 35.77414745176433 -5.858755865238762 0.03529411764705882
139.55151872251494 35.74167886552649 -5.8574785603322574 0.0392156862745098
139.63139047559906 35.70451291511136 -5.855820975037244 0.03529411764705882
139.71830726745108 35.68019686658673 -5.855284454487363 0.03137254901960784
139.81479098089804 35.67302485862292 -5.856243650637346 0.03137254901960784
139.90895947922294 35.66109301476069 -5.856817306700121 0.0392156862745098
140.00320329894546 35.6487679300527 -5.8573815646625516 0.043137254901960784
140.0950471501322 35.63171146351368 -5.857563150446579 0.03529411764705882
140.1918547291963 35.62294947282806 -5.858484058133689 0.03137254901960784
140.28627222683735 35.60945751223183 -5.859021174945769 0.03137254901960784
140.38324173871007 35.59990053018531 -5.859922938401443 0.03137254901960784
140.47278164214705 35.57699549407058 -5.859695918404042 0.03529411764705882
140.5648297876931 35.55804957461716 -5.859834708172209 0.0392156862745098
140.65690235629324 35.538713360401026 -5.859964923989692 0.03529411764705882
140.75411235333038 35.527584970157946 -5.8608300382233764 0.03529411764705882
140.8488276963958 35.51175230330229 -5.861313467883394 0.03529411764705882
140.94874820797835 35.504076402403356 -5.862529707775117 0.03137254901960784
141.03580150115624 35.47468126593313 -5.8618853260703645 0.03137254901960784
141.12019217809294 35.44069959732516 -5.860864251252165 0.03137254901960784
141.2071376451229 35.410633106134966 -5.860207365075513 0.0392156862745098
141.28612547735415 35.36752799832364 -5.858437110578437 0.0392156862745098
141.38090000106587 35.349472533973284 -5.8588729067557255 0.03529411764705882
141.46769571285276 35.31838555075078 -5.858196801339965 0.03529411764705882
136.0057309201007 26.506221634001427 -5.0908682875589 0.043137254901960784
136.06727041211178 26.50215161277546 -5.0917768899162255 0.027450980392156862
141.89901537112715 35.32000937029808 -5.866778036515097 0.027450980392156862
142.0271619863436 35.349378124132144 -5.871543740220016 0.03137254901960784
136.27986240652112 26.529868337152728 -5.098116256750843 0.03529411764705882
136.31963784750727 26.49147387691401 -5.096074548668235 0.050980392156862744
136.34530833540637 26.432266538833982 -5.092210015301909 0.06666666666666667
137.74430788366755 28.33965938423375 -5.262715273792769 0.03137254901960784
137.784655208795 28.28798345602572 -5.2597468688507805 0.0784313725490196
137.8474665506191 28.26902413280858 -5.259684978612235 0.06274509803921569
137.87888891886115 28.20479961224985 -5.255628996725825 0.043137254901960784
137.90998313044858 28.14053909266979 -5.251577171821439 0.03137254901960784
137.93499820096068 28.06808990422385 -5.24680495328082 0.06274509803921569
138.01463758675143 28.072802074318886 -5.24890453606519 0.0392156862745098
138.04789030359396 28.01233042245861 -5.245219177347117 0.0392156862745098
143.4097342576596 35.15748681325305 -5.8870338032655845 0.027450980392156862
143.5294467270026 35.1627835625347 -5.8901421267442995 0.027450980392156862
143.62863242156308 35.13943445595189 -5.8907196432726625 0.03137254901960784
143.7129421185422 35.095658828783854 -5.889494806411552 0.027450980392156862
137.98060885753296 27.201655031242584 -5.184796745679054 0.09019607843137255
138.04639439926356 27.189408425539973 -5.185469704055102 0.058823529411764705
138.14560971309436 27.220401803576912 -5.190063601672378 0.050980392156862744
138.21467934389025 27.2114055797868 -5.191074846072569 0.027450980392156862
139.14752162913473 28.312058603675226 -5.292527123593243 0.054901960784313725
139.08214948228274 28.12276982061351 -5.277392115698325 0.12549019607843137
139.21027732045513 28.18074276344592 -5.284674308061976 0.058823529411764705
139.19927758531148 28.062318013636883 -5.275963329446622 0.054901960784313725
139.42452381823483 28.240019799652014 -5.294207489522481 0.058823529411764705
139.40691356512087 28.11352355600475 -5.284786538806408 0.06274509803921569
139.51121868206027 28.138316441122672 -5.289173816297458 0.047058823529411764
139.60003414850192 28.14324274538246 -5.291778705373105 0.058823529411764705
139.19426196874736 27.54725903503074 -5.23934370678775 0.054901960784313725
139.20490583237356 27.460920801679123 -5.233537276832264 0.0392156862745098
139.061548164663 27.1909791389934 -5.210850548221605 0.01568627450980392
140.07915236931748 28.303533181456306 -5.3154332057225515 0.0392156862745098
139.24373031901882 27.213896681307382 -5.217224258095627 0.08235294117647059
140.28239697698527 28.334195270612213 -5.322932810216095 0.054901960784313725
140.3860332428085 28.35062325505222 -5.326835076539205 0.07450980392156863
140.43116606376614 28.29864566935421 -5.324427878705068 0.054901960784313725
141.0464850253439 28.900637021394758 -5.38279028522884 0.06274509803921569
141.41783571913444 29.105862145369215 -5.407087955219018 0.06666666666666667
141.3527112149725 28.923720807943553 -5.3927387685363914 0.043137254901960784
140.14750216422112 27.472303618927796 -5.259572796090191 0.03137254901960784
140.25292831944333 27.491620669613177 -5.263828124970384 0.13725490196078433
141.4897014177645 28.75388530472903 -5.384880846236342 0.047058823529411764
140.9767777706943 27.986142977971387 -5.317986043142503 0.07058823529411765
141.0135819987386 27.9250247361571 -5.314872115623371 0.043137254901960784
140.9290786522686 27.635522885828525 -5.292808328171897 0.043137254901960784
140.97824480018969 27.589185229854962 -5.291097557153208 0.047058823529411764
141.06858714041218 27.58595681899324 -5.293508081251793 0.047058823529411764
141.1729054173243 27.596655486107714 -5.297279642341807 0.054901960784313725
141.31564058520613 27.64620650993264 -5.304805186285936 0.058823529411764705
141.6643952606401 27.905606436730515 -5.332496205429027 0.09019607843137255
141.77042885067345 27.91364863065652 -5.336186212271934 0.06666666666666667
141.90125087806885 27.94593803498134 -5.342249701160746 0.16862745098039217
141.98669690901096 27.93155746691871 -5.343860794713833 0.09803921568627451
142.29252182887058 28.03488229489959 -5.359972311078831 0.12941176470588234
142.35730172572457 27.997775157676084 -5.35949927866918 0.06274509803921569
142.46841345686707 28.005705538348856 -5.363429996276 0.058823529411764705
142.55826569787752 27.992188899507134 -5.365312383276902 0.050980392156862744
142.6589746667796 27.988604880118483 -5.36819840332214 0.058823529411764705
142.73460849302256 27.960369939472095 -5.3687067442954 0.09019607843137255
142.86449743942748 27.983298253488144 -5.374268228108252 0.06274509803921569
143.06368999395252 28.070508481550966 -5.386210828830922 0.06274509803921569
143.2163358977948 28.112196742168166 -5.393741707656588 0.06274509803921569
143.5338811462437 28.305837155140555 -5.416366721499905 0.07058823529411765
143.6881610894953 28.241996652647195 -5.41718328483072 0.07450980392156863
143.95340713564158 28.380821367981447 -5.434650052852696 0.058823529411764705
144.04217209312648 28.35738693923674 -5.436020035740291 0.058823529411764705
144.4804949634058 28.541578164390696 -5.4620655160084475 0.10196078431372549
144.57390851940275 28.51922340823839 -5.463708700226517 0.0784313725490196
144.75730009876312 28.575435724168905 -5.473320367169825 0.08627450980392157
144.82853354715292 28.53215077043506 -5.472938875677592 0.14509803921568626
144.90343636293238 28.491816927240905 -5.47288560749679 0.09803921568627451
145.01985800988103 28.48693487982336 -5.476467354385671 0.11372549019607843
145.367846876124 28.67912077304957 -5.500202424046005 0.047058823529411764
145.51954627268665 28.701216598871937 -5.506696218603199 0.0392156862745098
145.6716195379866 28.722446224581553 -5.513167197991085 0.09803921568627451
145.81258007617285 28.733192423409974 -5.518625793596604 0.047058823529411764
146.01908266049543 28.7973287497717 -5.529653558461405 0.06274509803921569
146.25704688680835 28.88560242248804 -5.543271671416624 0.08627450980392157
146.38004183637625 28.877577894154093 -5.547009002257089 0.0784313725490196
146.43351877332182 28.812230154638065 -5.544833880406671 0.08235294117647059
146.77017962239253 28.975462521227215 -5.5665331361703085 0.054901960784313725
147.0459037964471 29.086620676586058 -5.582941039392504 0.0392156862745098
147.32265136185012 29.196024624579003 -5.599296725133522 0.054901960784313725
147.5064412881686 29.229461506475722 -5.607784227821207 0.0392156862745098
147.65928572650483 29.23716780565705 -5.613639145720819 0.050980392156862744
147.8360504637201 29.26239415961078 -5.621420962244777 0.054901960784313725
148.01323384162262 29.286578906081232 -5.629174603854676 0.050980392156862744
148.14333654447836 29.273255904419898 -5.633012172403292 0.10588235294117647
148.3251855342266 29.29854292743169 -5.64103823561936 0.08627450980392157
148.72231863961616 29.485316863500394 -5.666477414262315 0.08627450980392157
149.03722639010599 29.606584007981752 -5.685066003767007 0.050980392156862744
149.40123981660352 29.761645562108363 -5.707460247165025 0.058823529411764705
149.59816728197944 29.78965435116624 -5.716276073848872 0.0392156862745098
149.75936099426738 29.789904478638988 -5.722168260122761 0.0392156862745098
150.00547566540513 29.85098213320908 -5.73477426135166 0.047058823529411764
150.33713961093815 29.97200644742 -5.754064142617279 0.08627450980392157
150.568649111419 30.018099491667236 -5.76529528837872 0.09803921568627451
150.808873377431 30.0685617763912 -5.777127034168896 0.0392156862745098
151.1678089268212 30.20120661239175 -5.79816955698202 0.058823529411764705
151.3850862075181 30.23109535088757 -5.80799661188645 0.08627450980392157
151.45556374801353 30.156846867726046 -5.806337038770641 0.12549019607843137
151.6657733249453 30.1606950973824 -5.814444852019562 0.0784313725490196
152.20499091112046 30.363388617059087 -5.8463929152548975 0.09019607843137255
152.36336387406627 30.219751815043622 -5.844193579323216 0.09019607843137255
152.6702705400284 30.300145545478827 -5.860445849801668 0.09019607843137255
153.61155684397374 30.669459029875952 -5.917335327356063 0.027450980392156862
153.62535741135386 30.548818135372173 -5.911079319498452 0.0392156862745098
153.77252929129077 30.51527410556446 -5.914875229019628 0.0392156862745098
153.84009838563244 30.42954967735539 -5.912698754330451 0.03529411764705882
153.94520821661015 30.36776925663782 -5.913337635226743 0.0392156862745098
154.04178594419338 30.30010061513606 -5.913342235693976 0.03529411764705882
154.1382167969991 30.23196713990319 -5.913339259740505 0.0392156862745098
154.1964074694004 30.13954911724816 -5.910524240376851 0.0392156862745098
154.25851215084973 30.04956136129389 -5.908020826429249 0.047058823529411764
154.30330943147717 29.948883629548796 -5.90427434233765 0.07058823529411765
154.4499440010609 29.910529326709458 -5.907977133946675 0.058823529411764705
154.6265056572236 29.889441151824485 -5.9138296395740095 0.07058823529411765
154.75193747906042 29.836464995128452 -5.915945896035491 0.2196078431372549
154.838740454583 29.75981600146693 -5.915268794046075 0.2784313725490196
154.97258449474458 29.710702217063023 -5.917978520922283 0.1803921568627451
155.2272967195499 29.60274914150768 -5.922430430835018 0.03529411764705882
155.3221714442609 29.529006076037383 -5.922332783232408 0.03137254901960784
155.42120938654398 29.457284079400146 -5.922534403436051 0.027450980392156862
155.52874162930792 29.38999126155275 -5.9233391849681105 0.03137254901960784
155.6622413417513 29.336851452438943 -5.925970397783912 0.027450980392156862
155.7869876724895 29.278105324971385 -5.92797557207054 0.03137254901960784
155.91603787954955 29.221097158323545 -5.930271953835485 0.03529411764705882
156.04065332637552 29.16097984632487 -5.9322502509364075 0.03137254901960784
156.16518351211047 29.100174181291273 -5.9342143478370355 0.03137254901960784
156.2896454949975 29.038702704100245 -5.936166463813752 0.03529411764705882
156.41402223176328 28.97654285285048 -5.93810537925707 0.03529411764705882
156.53391210858754 28.911357397757293 -5.939728747164477 0.03529411764705882
156.68459023935978 28.861832700321933 -5.943455171042572 0.03137254901960784
156.76451600390277 28.774432420099345 -5.9423358389951595 0.027450980392156862
156.86633804914388 28.698147309612743 -5.94271890813581 0.027450980392156862
156.96798193886218 28.62133239841286 -5.943093502968532 0.03529411764705882
157.08279197190458 28.55079686326478 -5.944360317151377 0.03529411764705882
157.22418123193484 28.493147490586864 -5.947416758535818 0.03137254901960784
157.3521409320272 28.42800058810894 -5.94955830606191 0.0392156862745098
157.47999974562572 28.362132828081194 -5.951686204110992 0.03137254901960784
